ply
format ascii 1.0
element vertex 1334
property float x
property float y
property float z
property uchar red
property uchar green
property uchar blue
element face 0
end_header
1.5856 -0.333233 -7.26218 0 255 0
0.243309 -0.0677348 -7.58646 0 255 0
-0.808697 -0.841891 -5.26614 0 255 0
-0.71318 -0.856868 -5.27557 0 255 0
-0.0316673 -0.0766251 -7.49351 0 255 0
1.58079 -0.50347 -6.86069 0 255 0
0.0346007 -0.0791956 -7.52061 0 255 0
0.56996 -0.0758794 -7.68441 0 255 0
-0.282867 -0.118591 -7.31527 0 255 0
0.979582 -0.159196 -7.63516 0 255 0
-0.282731 -0.111892 -7.3389 0 255 0
0.713998 -0.0746356 -7.72382 0 255 0
0.779024 -0.0996145 -7.70271 0 255 0
0.837368 -0.0982979 -7.71128 0 255 0
-0.401303 -0.151277 -7.20369 0 255 0
-0.277062 -0.826449 -5.48715 0 255 0
-0.347411 -0.121929 -7.29487 0 255 0
0.746542 -0.100426 -7.69678 0 255 0
1.57491 -0.356981 -7.24435 0 255 0
1.51682 -0.399806 -7.15631 0 255 0
-0.0601231 -0.0934518 -7.47174 0 255 0
1.6109 -0.347668 -7.27672 0 255 0
-0.541308 -0.352169 -6.67035 0 255 0
0.0777329 -0.122656 -7.44824 0 255 0
0.206374 -0.0953951 -7.57514 0 255 0
0.207285 -0.0958125 -7.57163 0 255 0
1.58547 -0.507094 -6.89861 0 255 0
-0.291793 -0.138389 -7.31913 0 255 0
-0.179086 -0.0890613 -7.47018 0 255 0
-0.16633 -0.102273 -7.43581 0 255 0
-0.363401 -0.848206 -5.44741 0 255 0
0.34358 -0.0977203 -7.61586 0 255 0
0.82167 -0.144694 -7.61876 0 255 0
-0.149552 -0.849955 -5.52692 0 255 0
1.1038 -0.115985 -7.81433 0 255 0
-0.490309 -0.850169 -5.40586 0 255 0
-0.490309 -0.850169 -5.40586 0 255 0
-0.375617 -0.150045 -7.29705 0 255 0
0.502326 -0.100994 -7.67609 0 255 0
-0.222871 -0.117916 -7.389 0 255 0
-0.165779 -0.0985566 -7.46123 0 255 0
-0.107626 -0.0841529 -7.53148 0 255 0
-0.211482 -0.850713 -5.5051 0 255 0
0.193538 -0.105197 -7.57305 0 255 0
0.307533 -0.106679 -7.60509 0 255 0
0.467922 -0.102955 -7.67267 0 255 0
-0.217801 -0.859577 -5.49571 0 255 0
-0.453197 -0.184996 -7.2057 0 255 0
0.757009 -0.130881 -7.69728 0 255 0
0.881793 -0.167329 -7.65781 0 255 0
-0.295241 -0.188847 -7.24199 0 255 0
-0.162726 -0.115336 -7.45022 0 255 0
0.275773 -0.109455 -7.61614 0 255 0
0.325359 -0.112655 -7.60673 0 255 0
0.930614 -0.158492 -7.69169 0 255 0
0.948426 -0.158368 -7.70517 0 255 0
1.20293 -0.18055 -7.74621 0 255 0
-0.165133 -0.114612 -7.47357 0 255 0
0.379419 -0.119656 -7.63299 0 255 0
1.08238 -0.134088 -7.80218 0 255 0
0.126864 -0.127685 -7.5345 0 255 0
0.22258 -0.256931 -7.21131 0 255 0
0.385725 -0.103277 -7.6695 0 255 0
-0.2642 -0.794625 -5.71522 0 255 0
0.27746 -0.100095 -7.64259 0 255 0
0.509006 -0.114201 -7.69141 0 255 0
-0.0883076 -0.138498 -7.45679 0 255 0
0.159311 -0.103731 -7.61778 0 255 0
0.450439 -0.115103 -7.67287 0 255 0
0.763898 -0.134202 -7.72437 0 255 0
-0.619939 -0.874142 -5.35541 0 255 0
-0.619939 -0.874142 -5.35541 0 255 0
-0.018971 -0.138134 -7.49129 0 255 0
0.665712 -0.137282 -7.70311 0 255 0
-0.00257415 -0.128661 -7.53401 0 255 0
0.484166 -0.111632 -7.71487 0 255 0
-0.273061 -0.866961 -5.49447 0 255 0
1.05197 -0.155882 -7.77771 0 255 0
-0.482108 -0.884232 -5.39913 0 255 0
-0.491979 -0.879556 -5.404 0 255 0
0.439459 -0.139755 -7.65655 0 255 0
0.44585 -0.144373 -7.64256 0 255 0
-0.373778 -0.884283 -5.44758 0 255 0
-0.5345 -0.217098 -7.15876 0 255 0
-0.0450093 -0.136511 -7.51562 0 255 0
-0.0127162 -0.156635 -7.4828 0 255 0
0.764895 -0.154442 -7.71484 0 255 0
-0.349947 -0.18577 -7.27684 0 255 0
1.58129 -0.40821 -7.25818 0 255 0
-0.944654 -0.892342 -5.23588 0 255 0
-0.944654 -0.892342 -5.23588 0 255 0
0.244498 -0.137584 -7.60173 0 255 0
0.668556 -0.157141 -7.70037 0 255 0
-0.287396 -0.74214 -5.84924 0 255 0
-0.683349 -0.143104 -7.33815 0 255 0
-0.545357 -0.225543 -7.16518 0 255 0
-0.520599 -0.182968 -7.25192 0 255 0
-0.517882 -0.188052 -7.27593 0 255 0
-0.39839 -0.227984 -7.19465 0 255 0
0.434967 -0.139458 -7.67209 0 255 0
0.42997 -0.135582 -7.68217 0 255 0
0.450472 -0.150292 -7.66103 0 255 0
-0.492237 -0.888516 -5.41604 0 255 0
0.413234 -0.148157 -7.65744 0 255 0
0.859129 -0.183381 -7.70128 0 255 0
-0.606301 -0.206803 -7.18608 0 255 0
-0.329542 -0.192022 -7.31162 0 255 0
0.827508 -0.177831 -7.71396 0 255 0
-0.346334 -0.202015 -7.29622 0 255 0
-0.744307 -0.890576 -5.32833 0 255 0
-0.339823 -0.218266 -7.26683 0 255 0
1.01793 -0.205975 -7.69898 0 255 0
-0.496485 -0.892505 -5.40212 0 255 0
-0.551332 -0.894716 -5.3862 0 255 0
0.323439 -0.159308 -7.61521 0 255 0
0.921958 -0.18718 -7.72956 0 255 0
-0.504523 -0.896978 -5.4009 0 255 0
-0.504523 -0.896978 -5.4009 0 255 0
0.986108 -0.212841 -7.69785 0 255 0
-0.291243 -0.205572 -7.32177 0 255 0
-0.543986 -0.90055 -5.387 0 255 0
-1.01521 -0.900091 -5.24359 0 255 0
-0.840078 -0.840896 -5.49257 0 255 0
-0.656753 -0.90144 -5.34658 0 255 0
0.316478 -0.156177 -7.64372 0 255 0
0.496155 -0.164274 -7.68962 0 255 0
-0.25952 -0.894627 -5.52239 0 255 0
0.859823 -0.194547 -7.72036 0 255 0
1.07935 -0.202007 -7.7721 0 255 0
1.07935 -0.202007 -7.7721 0 255 0
-0.34997 -0.212644 -7.29978 0 255 0
-0.560369 -0.8995 -5.39519 0 255 0
-0.544332 -0.908847 -5.38748 0 255 0
-0.544332 -0.908847 -5.38748 0 255 0
-0.372128 -0.225079 -7.28248 0 255 0
-0.289529 -0.219102 -7.31845 0 255 0
-0.316448 -0.18385 -7.36595 0 255 0
0.726049 -0.116621 -7.80273 0 255 0
-0.533145 -0.908203 -5.39002 0 255 0
0.122295 -0.183155 -7.53027 0 255 0
0.109433 -0.18778 -7.53887 0 255 0
0.779797 -0.187791 -7.72238 0 255 0
1.05726 -0.231319 -7.72279 0 255 0
-0.754554 -0.152702 -7.40858 0 255 0
-0.0411246 -0.187475 -7.49103 0 255 0
-0.0181205 -0.121997 -7.68019 0 255 0
0.88895 -0.215974 -7.70001 0 255 0
0.236235 -0.181056 -7.59173 0 255 0
1.28111 -0.233734 -7.73496 0 255 0
-0.54469 -0.90515 -5.40442 0 255 0
-0.383201 -0.904812 -5.45676 0 255 0
0.368457 -0.185955 -7.63147 0 255 0
-0.245604 -0.915997 -5.49451 0 255 0
0.866837 -0.212806 -7.72056 0 255 0
0.894699 -0.243402 -7.64851 0 255 0
-0.280502 -0.204889 -7.40696 0 255 0
-0.222371 -0.213951 -7.3894 0 255 0
1.18906 -0.225854 -7.79264 0 255 0
1.46492 -0.410002 -7.28793 0 255 0
1.48346 -0.489887 -7.17179 0 255 0
1.52177 -0.445509 -7.25533 0 255 0
1.52177 -0.445509 -7.25533 0 255 0
-0.0805938 -0.180535 -7.51568 0 255 0
1.50311 -0.499786 -7.15961 0 255 0
-0.519075 -0.918773 -5.39912 0 255 0
-0.0720582 -0.182565 -7.51316 0 255 0
0.333096 -0.191646 -7.62873 0 255 0
1.22546 -0.287063 -7.62173 0 255 0
-0.475894 -0.280222 -7.15022 0 255 0
-0.495424 -0.279142 -7.15544 0 255 0
-0.0719311 -0.205355 -7.48146 0 255 0
-0.534454 -0.92575 -5.38868 0 255 0
-0.374616 -0.330724 -7.05168 0 255 0
-0.475489 -0.237134 -7.30672 0 255 0
1.31958 -0.265302 -7.71974 0 255 0
-0.601205 -0.234635 -7.23015 0 255 0
0.219868 -0.204695 -7.58281 0 255 0
0.922526 -0.275506 -7.5922 0 255 0
-0.0968152 -0.908161 -5.56723 0 255 0
-0.302504 -0.206042 -7.39865 0 255 0
0.810903 -0.230798 -7.68604 0 255 0
-0.588661 -0.927303 -5.40046 0 255 0
-0.36285 -0.284295 -7.21282 0 255 0
-0.324532 -0.279259 -7.24211 0 255 0
-0.0932816 -0.220557 -7.45846 0 255 0
0.515456 -0.192652 -7.71688 0 255 0
0.39434 -0.195089 -7.67299 0 255 0
0.428181 -0.188762 -7.70309 0 255 0
1.04771 -0.247675 -7.73503 0 255 0
-0.539803 -0.926312 -5.4136 0 255 0
-0.307984 -0.260729 -7.32407 0 255 0
0.922229 -0.259311 -7.69118 0 255 0
-0.339931 -0.281598 -7.24693 0 255 0
-0.337307 -0.284574 -7.24341 0 255 0
0.256862 -0.33617 -7.26105 0 255 0
0.256862 -0.33617 -7.26105 0 255 0
-0.248264 -0.260166 -7.33915 0 255 0
0.580719 -0.194075 -7.76042 0 255 0
0.91952 -0.251723 -7.70214 0 255 0
-0.545544 -0.900175 -5.52632 0 255 0
-0.305332 -0.936252 -5.48606 0 255 0
1.10274 -0.234127 -7.81743 0 255 0
1.10943 -0.252031 -7.7855 0 255 0
-0.490427 -0.862953 -5.6146 0 255 0
-0.318666 -0.295557 -7.24784 0 255 0
-0.575595 -0.942058 -5.38064 0 255 0
-0.322686 -0.272024 -7.31165 0 255 0
1.50944 -0.523524 -7.18674 0 255 0
-0.511889 -0.308179 -7.1514 0 255 0
0.772807 -0.245195 -7.70853 0 255 0
-0.797761 -0.948256 -5.29623 0 255 0
-0.226339 -0.936955 -5.51597 0 255 0
-0.482548 -0.275192 -7.2268 0 255 0
-0.755072 -0.944314 -5.32646 0 255 0
-0.244 -0.935329 -5.5099 0 255 0
0.81146 -0.260144 -7.69793 0 255 0
1.11451 -0.253804 -7.80526 0 255 0
1.11055 -0.248986 -7.81095 0 255 0
-0.467739 -0.3051 -7.17929 0 255 0
-0.187978 -0.223831 -7.50029 0 255 0
-0.107298 -0.236913 -7.49254 0 255 0
0.786775 -0.326501 -7.4856 0 255 0
1.52819 -0.685314 -6.70915 0 255 0
1.49964 -0.479317 -7.27412 0 255 0
-0.608687 -0.952238 -5.36713 0 255 0
-0.545649 -0.949118 -5.39416 0 255 0
-0.545649 -0.949118 -5.39416 0 255 0
0.9603 -0.263696 -7.73728 0 255 0
-0.338165 -0.945883 -5.48005 0 255 0
-0.326725 -0.288121 -7.29553 0 255 0
-0.407092 -0.284715 -7.25573 0 255 0
0.062461 -0.228178 -7.57312 0 255 0
1.54446 -0.494915 -7.21784 0 255 0
-0.470867 -0.307258 -7.19035 0 255 0
1.22957 -0.331334 -7.6236 0 255 0
-0.510576 -0.316974 -7.16295 0 255 0
1.05039 -0.284025 -7.74261 0 255 0
0.376063 -0.216861 -7.70269 0 255 0
0.414868 -0.22433 -7.70143 0 255 0
0.592134 -0.308582 -7.52175 0 255 0
-0.193787 -0.284091 -7.36327 0 255 0
-0.194144 -0.286093 -7.36086 0 255 0
0.090882 -0.232928 -7.59974 0 255 0
0.702212 -0.263266 -7.69617 0 255 0
1.55185 -0.460761 -7.33028 0 255 0
-0.756485 -0.965353 -5.30863 0 255 0
-0.756485 -0.965353 -5.30863 0 255 0
-0.529557 -0.951363 -5.41188 0 255 0
0.341868 -0.260593 -7.59665 0 255 0
0.32857 -0.246014 -7.62797 0 255 0
1.50257 -0.499181 -7.26568 0 255 0
-0.408905 -0.300263 -7.26189 0 255 0
-0.0861043 -0.250914 -7.49052 0 255 0
0.826421 -0.279883 -7.69282 0 255 0
-0.0502656 -0.258944 -7.49807 0 255 0
0.204043 -0.261325 -7.57894 0 255 0
0.626583 -0.262295 -7.70025 0 255 0
0.760147 -0.282099 -7.69509 0 255 0
0.918496 -0.306234 -7.67726 0 255 0
1.00508 -0.296754 -7.72051 0 255 0
-0.645459 -0.415689 -6.89279 0 255 0
0.932795 -0.308398 -7.68187 0 255 0
-0.222839 -0.96649 -5.50446 0 255 0
0.908448 -0.308039 -7.67458 0 255 0
-0.255878 -0.968542 -5.49339 0 255 0
-0.195455 -0.96961 -5.5194 0 255 0
-0.424059 -0.309132 -7.28921 0 255 0
-0.373529 -0.964015 -5.47395 0 255 0
-0.372011 -0.969861 -5.45923 0 255 0
0.206457 -0.268963 -7.58011 0 255 0
-0.592948 -0.292808 -7.2939 0 255 0
-0.530922 -0.333336 -7.19194 0 255 0
-0.507953 -0.321831 -7.21559 0 255 0
-0.471368 -0.339336 -7.18332 0 255 0
-0.466247 -0.345984 -7.17467 0 255 0
-0.478926 -0.321331 -7.20004 0 255 0
-0.157894 -0.964053 -5.5446 0 255 0
-0.443427 -0.327217 -7.23628 0 255 0
1.31367 -0.338461 -7.70516 0 255 0
-0.286982 -0.302311 -7.35482 0 255 0
-0.271544 -0.310265 -7.33196 0 255 0
0.47831 -0.268131 -7.67554 0 255 0
0.48272 -0.272314 -7.66381 0 255 0
1.24454 -0.346672 -7.67817 0 255 0
1.30613 -0.344762 -7.70303 0 255 0
1.30602 -0.345814 -7.70022 0 255 0
-0.447389 -0.3384 -7.22465 0 255 0
-0.41594 -0.346932 -7.21431 0 255 0
-0.407696 -0.350134 -7.20316 0 255 0
-0.780704 -0.8748 -5.6085 0 255 0
0.468962 -0.264884 -7.69809 0 255 0
0.849816 -0.307229 -7.70197 0 255 0
-0.358557 -0.33632 -7.27198 0 255 0
-0.358205 -0.337374 -7.2733 0 255 0
-0.0350773 -0.443902 -7.04054 0 255 0
1.08052 -0.310108 -7.78378 0 255 0
1.12266 -0.295236 -7.82556 0 255 0
0.93705 -0.326205 -7.69888 0 255 0
-0.372106 -0.343906 -7.25683 0 255 0
0.97927 -0.32703 -7.71883 0 255 0
0.979298 -0.330133 -7.71049 0 255 0
-0.483646 -0.911592 -5.61179 0 255 0
-0.385551 -0.97969 -5.47561 0 255 0
-0.357101 -0.982975 -5.47419 0 255 0
-0.318135 -0.23237 -7.59765 0 255 0
0.741587 -0.300264 -7.71161 0 255 0
-0.240604 -0.986311 -5.50099 0 255 0
1.28295 -0.363657 -7.68811 0 255 0
-0.343046 -0.338041 -7.28558 0 255 0
0.0499207 -0.290128 -7.53982 0 255 0
0.0804077 -0.277042 -7.57614 0 255 0
1.52683 -0.547296 -7.25167 0 255 0
-0.261154 -0.318277 -7.37314 0 255 0
-0.63981 -0.342723 -7.20107 0 255 0
0.716072 -0.311633 -7.68957 0 255 0
-0.370788 -0.929444 -5.61096 0 255 0
0.311165 -0.280826 -7.65665 0 255 0
1.28716 -0.368624 -7.69075 0 255 0
-0.436566 -0.374763 -7.18302 0 255 0
-0.441971 -0.370938 -7.19232 0 255 0
-0.431958 -0.368104 -7.19611 0 255 0
-0.430998 -0.369554 -7.19459 0 255 0
-0.421151 -0.372382 -7.19019 0 255 0
0.634196 -0.307264 -7.68856 0 255 0
1.34866 -0.370774 -7.70909 0 255 0
1.23023 -0.368251 -7.68041 0 255 0
0.799702 -0.297745 -7.74502 0 255 0
-0.176383 -0.997371 -5.52951 0 255 0
0.357811 -0.305917 -7.62212 0 255 0
-0.323048 -0.402141 -7.14184 0 255 0
-0.333429 -0.333297 -7.34851 0 255 0
0.98532 -0.339153 -7.73286 0 255 0
0.66551 -0.316223 -7.69411 0 255 0
-0.273666 -1.00032 -5.4969 0 255 0
-0.398044 -0.340938 -7.31512 0 255 0
0.375736 -0.303692 -7.65454 0 255 0
1.03887 -0.342335 -7.75392 0 255 0
-0.335588 -0.991804 -5.48375 0 255 0
1.28144 -0.411556 -7.63918 0 255 0
-0.434594 -0.371405 -7.2285 0 255 0
0.692224 -0.319335 -7.71598 0 255 0
0.713425 -0.346905 -7.63215 0 255 0
-0.317895 -0.345587 -7.33464 0 255 0
0.313497 -0.30438 -7.64206 0 255 0
1.29185 -0.413072 -7.67147 0 255 0
0.678412 -0.321044 -7.73791 0 255 0
1.3453 -0.446921 -7.63169 0 255 0
-0.281503 -0.347803 -7.36424 0 255 0
0.656606 -0.33006 -7.72067 0 255 0
-0.342674 -0.372434 -7.29948 0 255 0
-0.633401 -0.365945 -7.21951 0 255 0
-0.371105 -0.371341 -7.29097 0 255 0
-0.394459 -0.40152 -7.23523 0 255 0
-0.41239 -0.376435 -7.27831 0 255 0
-0.604997 -1.01521 -5.38846 0 255 0
0.843903 -0.353329 -7.73306 0 255 0
1.32494 -0.400602 -7.7172 0 255 0
1.32358 -0.384529 -7.73786 0 255 0
1.021 -0.373343 -7.74499 0 255 0
-0.55085 -1.01822 -5.40576 0 255 0
0.0747503 -0.330517 -7.56756 0 255 0
0.0924058 -0.342926 -7.53924 0 255 0
-0.624449 -0.395557 -7.18029 0 255 0
0.342006 -0.33393 -7.63818 0 255 0
0.334208 -0.329425 -7.64984 0 255 0
0.972499 -0.369894 -7.7414 0 255 0
1.27269 -0.405355 -7.69763 0 255 0
1.27502 -0.404104 -7.70015 0 255 0
-0.439281 -1.02798 -5.43061 0 255 0
0.844859 -0.360801 -7.73287 0 255 0
-0.40102 -0.392315 -7.26733 0 255 0
0.928019 -0.377076 -7.71291 0 255 0
0.933728 -0.38381 -7.70452 0 255 0
-0.747583 -0.26871 -7.5506 0 255 0
0.815799 -0.366734 -7.71793 0 255 0
1.08772 -0.354779 -7.82785 0 255 0
1.0829 -0.350426 -7.83336 0 255 0
-0.555982 -1.02908 -5.39964 0 255 0
-0.419273 -0.410797 -7.21862 0 255 0
-0.407189 -0.409221 -7.23991 0 255 0
0.881323 -0.35336 -7.76632 0 255 0
0.888518 -0.364414 -7.74864 0 255 0
-0.281865 -0.389549 -7.33878 0 255 0
-0.352463 -0.396831 -7.2989 0 255 0
-0.351188 -0.396957 -7.30049 0 255 0
0.0798153 -0.355974 -7.54026 0 255 0
0.678235 -0.354202 -7.72746 0 255 0
0.775329 -0.384653 -7.66892 0 255 0
0.984286 -0.397889 -7.72543 0 255 0
0.605333 -0.346196 -7.74837 0 255 0
-0.699822 -0.944017 -5.61842 0 255 0
-0.567023 -1.03241 -5.40482 0 255 0
0.956622 -0.392562 -7.7315 0 255 0
-0.716221 -0.982937 -5.5426 0 255 0
0.990036 -0.394836 -7.7441 0 255 0
-0.474966 -1.03844 -5.43424 0 255 0
-0.448322 -1.03926 -5.4376 0 255 0
1.21585 -0.405962 -7.75698 0 255 0
-0.400078 -0.409131 -7.30812 0 255 0
0.96361 -0.405423 -7.73703 0 255 0
-0.657464 -0.421181 -7.21849 0 255 0
1.10322 -0.376302 -7.85446 0 255 0
-0.0330726 -0.312991 -7.73076 0 255 0
0.834924 -0.404331 -7.73006 0 255 0
0.833765 -0.404544 -7.73022 0 255 0
0.747843 -0.390318 -7.74035 0 255 0
0.803954 -0.391066 -7.75212 0 255 0
0.808965 -0.40041 -7.73621 0 255 0
0.340007 -0.376551 -7.65946 0 255 0
-0.450289 -0.431692 -7.2977 0 255 0
-0.523374 -0.44064 -7.22387 0 255 0
-0.511733 -0.449124 -7.21028 0 255 0
-0.652323 -0.974985 -5.61567 0 255 0
-0.392976 -0.441087 -7.27836 0 255 0
0.863951 -0.416394 -7.72734 0 255 0
1.01873 -0.426335 -7.74048 0 255 0
1.01194 -0.421539 -7.76018 0 255 0
-0.513116 -1.06002 -5.42366 0 255 0
-0.301862 -0.424953 -7.35009 0 255 0
1.05138 -0.399609 -7.83348 0 255 0
1.08143 -0.385658 -7.859 0 255 0
-0.601632 -0.420923 -7.27435 0 255 0
-0.724728 -1.06704 -5.33751 0 255 0
-0.405077 -0.453011 -7.2471 0 255 0
0.4105 -0.385115 -7.69805 0 255 0
0.886027 -0.423001 -7.73736 0 255 0
1.26695 -0.457178 -7.72253 0 255 0
-0.491168 -0.470294 -7.18723 0 255 0
0.86404 -0.407282 -7.77326 0 255 0
-0.622565 -0.450614 -7.19536 0 255 0
-0.65797 -0.431924 -7.24738 0 255 0
0.758862 -0.41665 -7.73169 0 255 0
0.841492 -0.422428 -7.73858 0 255 0
0.832806 -0.42371 -7.7312 0 255 0
-0.782815 -1.07759 -5.31288 0 255 0
-0.764673 -0.320019 -7.59204 0 255 0
-0.764673 -0.320019 -7.59204 0 255 0
1.01928 -0.43781 -7.76119 0 255 0
0.803569 -0.412043 -7.75306 0 255 0
0.817014 -0.424788 -7.73286 0 255 0
-0.75302 -0.981041 -5.61403 0 255 0
-0.506201 -1.08921 -5.39754 0 255 0
1.08878 -0.420494 -7.84074 0 255 0
-0.968301 -1.0901 -5.24306 0 255 0
0.468483 -0.385749 -7.77054 0 255 0
0.470328 -0.381726 -7.7753 0 255 0
1.1001 -0.437441 -7.82437 0 255 0
-0.54935 -0.451179 -7.24976 0 255 0
-0.612795 -0.467008 -7.20573 0 255 0
-0.43857 -0.487023 -7.21979 0 255 0
0.982167 -0.458937 -7.73553 0 255 0
1.01153 -0.445028 -7.76541 0 255 0
1.35682 -0.48401 -7.74732 0 255 0
0.755735 -0.434518 -7.73703 0 255 0
0.939017 -0.45712 -7.72635 0 255 0
-0.158212 -0.403916 -7.54277 0 255 0
-0.346466 -0.516543 -7.1491 0 255 0
0.968822 -0.456235 -7.73766 0 255 0
-0.208748 -0.340305 -7.73695 0 255 0
0.942662 -0.45804 -7.72586 0 255 0
-0.765652 -1.09148 -5.32501 0 255 0
0.89192 -0.449505 -7.74382 0 255 0
-0.409009 -0.498742 -7.21638 0 255 0
-0.344032 -0.479206 -7.29469 0 255 0
1.0027 -0.455676 -7.75732 0 255 0
1.27642 -0.492736 -7.72279 0 255 0
1.10618 -0.419858 -7.89064 0 255 0
-0.379614 -0.475004 -7.29525 0 255 0
-0.204529 -0.345139 -7.74677 0 255 0
1.0868 -0.44782 -7.82739 0 255 0
1.08653 -0.446861 -7.82767 0 255 0
1.32635 -0.499074 -7.72789 0 255 0
1.06447 -0.455987 -7.80329 0 255 0
1.04606 -0.449737 -7.81363 0 255 0
-0.416851 -0.49344 -7.23473 0 255 0
-0.256728 -0.963287 -5.88983 0 255 0
1.28271 -0.50919 -7.71581 0 255 0
-0.553684 -1.04495 -5.59125 0 255 0
0.0250986 -0.448142 -7.54185 0 255 0
1.21877 -0.500533 -7.74533 0 255 0
-0.312149 -0.475126 -7.35645 0 255 0
-0.357071 -0.441368 -7.4329 0 255 0
0.0382649 -0.384603 -7.74688 0 255 0
0.321964 -0.42582 -7.70266 0 255 0
0.80901 -0.471703 -7.72982 0 255 0
1.35758 -0.513609 -7.75624 0 255 0
-0.610665 -0.548747 -7.08318 0 255 0
-0.296456 -0.486162 -7.35697 0 255 0
-0.237767 -1.07659 -5.59061 0 255 0
-0.446848 -0.526729 -7.20967 0 255 0
0.835782 -0.484479 -7.72557 0 255 0
-0.423411 -0.529729 -7.21298 0 255 0
1.04185 -0.461557 -7.84035 0 255 0
-0.305638 -0.501364 -7.3429 0 255 0
0.664717 -0.45896 -7.75231 0 255 0
1.32009 -0.520664 -7.75567 0 255 0
-0.493623 -0.539494 -7.18931 0 255 0
0.942724 -0.516545 -7.70792 0 255 0
0.936104 -0.506238 -7.723 0 255 0
-0.257365 -0.466438 -7.64536 0 255 0
0.975455 -0.517848 -7.71519 0 255 0
-0.552907 -0.579601 -7.06469 0 255 0
0.910767 -0.509625 -7.72297 0 255 0
0.910369 -0.507467 -7.72696 0 255 0
-0.753633 -0.397732 -7.60382 0 255 0
0.564001 -0.456629 -7.78684 0 255 0
-0.268122 -1.04808 -5.74826 0 255 0
-0.238711 -0.500597 -7.41509 0 255 0
-0.0293857 -0.447412 -7.62485 0 255 0
-0.351813 -0.497121 -7.36973 0 255 0
-0.326848 -0.523309 -7.32215 0 255 0
1.01213 -0.521268 -7.74938 0 255 0
0.918932 -0.558802 -7.57622 0 255 0
-0.470863 -0.548371 -7.21139 0 255 0
-0.492989 -0.512924 -7.28804 0 255 0
0.836474 -0.514053 -7.72077 0 255 0
-0.152937 -1.14944 -5.48176 0 255 0
0.450669 -0.457083 -7.76711 0 255 0
-0.369747 -0.521784 -7.3265 0 255 0
-0.274194 -1.05517 -5.80236 0 255 0
0.82541 -0.514949 -7.73433 0 255 0
-0.423737 -0.523152 -7.29421 0 255 0
-0.403067 -0.543409 -7.26851 0 255 0
1.03933 -0.510556 -7.80005 0 255 0
-0.502382 -0.541701 -7.2477 0 255 0
-0.189474 -0.471882 -7.53982 0 255 0
-0.603202 -0.551791 -7.20463 0 255 0
0.805528 -0.515429 -7.74136 0 255 0
0.806975 -0.525185 -7.72287 0 255 0
1.35275 -0.593311 -7.69673 0 255 0
-0.35284 -0.543511 -7.30794 0 255 0
-0.354208 -0.541945 -7.30962 0 255 0
-0.33613 -0.550195 -7.30068 0 255 0
-0.338576 -0.548682 -7.3035 0 255 0
-0.311934 -0.535181 -7.35348 0 255 0
0.830523 -0.525173 -7.73123 0 255 0
-0.481339 -0.563653 -7.21622 0 255 0
-0.764326 -1.1436 -5.34363 0 255 0
1.0037 -0.532042 -7.76064 0 255 0
0.322611 -0.464131 -7.76109 0 255 0
-0.297084 -0.98128 -5.9973 0 255 0
-0.341543 -0.9507 -6.08918 0 255 0
-0.659566 -0.535501 -7.24547 0 255 0
0.949738 -0.53386 -7.7506 0 255 0
-0.253425 -0.418891 -7.76311 0 255 0
0.504311 -0.427113 -8.08901 0 255 0
0.789973 -0.513192 -7.76317 0 255 0
0.99365 -0.536741 -7.76634 0 255 0
0.988734 -0.527592 -7.77979 0 255 0
1.02806 -0.520934 -7.81252 0 255 0
0.367578 -0.539618 -7.5726 0 255 0
-0.368325 -0.55642 -7.31964 0 255 0
1.26537 -0.589341 -7.73606 0 255 0
-0.423793 -0.574559 -7.25058 0 255 0
-0.380101 -0.477524 -7.56856 0 255 0
-0.606484 -0.578685 -7.20778 0 255 0
-0.499159 -0.583808 -7.22486 0 255 0
0.735512 -0.5424 -7.72554 0 255 0
-0.456939 -0.825684 -6.48649 0 255 0
1.05157 -0.564053 -7.70715 0 255 0
-0.360795 -1.0001 -5.99727 0 255 0
-0.231615 -0.539222 -7.42683 0 255 0
0.388063 -0.504687 -7.73433 0 255 0
1.001 -0.555374 -7.75728 0 255 0
-0.168681 -1.15393 -5.56601 0 255 0
-0.306491 -0.557441 -7.36991 0 255 0
1.10071 -0.54588 -7.83856 0 255 0
-0.607452 -0.603009 -7.17659 0 255 0
0.952633 -0.572028 -7.72987 0 255 0
1.08643 -0.548785 -7.83225 0 255 0
1.88931 -1.10946 -6.2928 0 255 0
-0.572497 -0.631253 -7.08995 0 255 0
0.55324 -0.5093 -7.79402 0 255 0
1.05251 -0.543997 -7.83555 0 255 0
-0.616729 -1.16469 -5.41029 0 255 0
-0.463847 -1.16265 -5.46092 0 255 0
-0.426406 -0.571834 -7.2957 0 255 0
0.833465 -0.561859 -7.73937 0 255 0
0.989395 -0.573973 -7.74994 0 255 0
1.25547 -0.620331 -7.7179 0 255 0
-0.569583 -0.569061 -7.29341 0 255 0
-0.418882 -1.16806 -5.46308 0 255 0
-0.503407 -0.599854 -7.21248 0 255 0
-0.409732 -0.579825 -7.30468 0 255 0
-0.655479 -0.561411 -7.28023 0 255 0
0.657782 -0.547993 -7.74707 0 255 0
-0.555076 -0.743593 -6.81327 0 255 0
-0.437168 -0.569322 -7.33588 0 255 0
-0.351427 -0.57679 -7.35384 0 255 0
1.07758 -0.554399 -7.84186 0 255 0
-0.640304 -1.17417 -5.39542 0 255 0
-0.120808 -0.56899 -7.6126 0 255 0
1.24346 -0.599365 -7.77091 0 255 0
-0.44096 -1.07567 -5.77654 0 255 0
-0.304907 -1.17152 -5.52708 0 255 0
-0.61659 -0.599353 -7.23098 0 255 0
-0.417381 -0.598768 -7.28712 0 255 0
-0.574163 -1.18202 -5.41147 0 255 0
0.827554 -0.575777 -7.75069 0 255 0
0.757105 -0.570251 -7.75469 0 255 0
-0.354105 -0.579333 -7.40088 0 255 0
-0.325772 -0.595632 -7.35882 0 255 0
-0.583694 -1.19148 -5.39725 0 255 0
-0.618655 -0.611526 -7.2193 0 255 0
-0.343446 -0.610305 -7.31235 0 255 0
-0.305312 -0.597669 -7.35697 0 255 0
-0.331369 -0.580335 -7.3957 0 255 0
0.412047 -0.536227 -7.75666 0 255 0
-0.670136 -1.11095 -5.61848 0 255 0
-0.418662 -0.63343 -7.229 0 255 0
0.664597 -0.575263 -7.76357 0 255 0
-0.613278 -0.618768 -7.22212 0 255 0
-0.276564 -0.574344 -7.45562 0 255 0
-0.52379 -0.636429 -7.23498 0 255 0
-0.18989 -0.493268 -7.78426 0 255 0
0.918008 -0.618775 -7.7234 0 255 0
1.06497 -0.592122 -7.82 0 255 0
-0.450812 -0.637092 -7.2464 0 255 0
0.667993 -0.574389 -7.77237 0 255 0
-0.661007 -1.19813 -5.39115 0 255 0
0.825285 -0.607339 -7.73708 0 255 0
1.07296 -0.590292 -7.85389 0 255 0
-0.254606 -0.589684 -7.46238 0 255 0
-0.352271 -1.20375 -5.50467 0 255 0
0.91213 -0.623042 -7.73435 0 255 0
-0.420332 -1.20167 -5.47243 0 255 0
-0.583457 -0.682977 -7.09772 0 255 0
-0.391529 -0.81881 -6.69207 0 255 0
0.842935 -0.614575 -7.74418 0 255 0
1.07116 -0.607436 -7.83206 0 255 0
-0.656139 -0.632334 -7.24594 0 255 0
-0.417304 -0.650603 -7.25676 0 255 0
-0.376065 -1.15621 -5.62927 0 255 0
0.94124 -0.635909 -7.68014 0 255 0
0.92878 -0.623801 -7.73591 0 255 0
0.938353 -0.616582 -7.77034 0 255 0
1.013 -0.631122 -7.7477 0 255 0
-0.351625 -0.640334 -7.31688 0 255 0
0.826277 -0.615973 -7.75537 0 255 0
-0.310599 -0.628812 -7.37104 0 255 0
1.09725 -0.617825 -7.83519 0 255 0
0.938333 -0.68758 -7.54274 0 255 0
-0.845073 -1.21927 -5.32424 0 255 0
-0.845073 -1.21927 -5.32424 0 255 0
-0.588009 -0.658246 -7.22503 0 255 0
-0.44395 -0.65726 -7.25492 0 255 0
0.919003 -0.642931 -7.72459 0 255 0
1.007 -0.644493 -7.74927 0 255 0
1.04849 -0.706741 -7.5329 0 255 0
1.27866 -0.707241 -7.6741 0 255 0
-0.586272 -0.631705 -7.3295 0 255 0
-0.516783 -0.666232 -7.2176 0 255 0
-0.415996 -0.67533 -7.23265 0 255 0
-0.430286 -0.665006 -7.24838 0 255 0
-0.561735 -1.21912 -5.41985 0 255 0
-0.357432 -0.651268 -7.32331 0 255 0
-0.0726085 -0.583541 -7.605 0 255 0
0.817336 -0.616958 -7.77319 0 255 0
1.01076 -0.638884 -7.76809 0 255 0
1.36035 -0.691807 -7.73121 0 255 0
1.14123 -0.677612 -7.66743 0 255 0
0.759922 -0.619305 -7.76863 0 255 0
-0.483839 -0.670092 -7.23385 0 255 0
-0.53677 -0.625222 -7.353 0 255 0
0.826279 -0.633851 -7.75383 0 255 0
0.914215 -0.642382 -7.74038 0 255 0
0.913979 -0.64148 -7.74612 0 255 0
0.962135 -0.649491 -7.74589 0 255 0
1.25892 -0.677129 -7.75029 0 255 0
-0.489335 -0.591372 -7.50327 0 255 0
0.933358 -0.65391 -7.73554 0 255 0
0.931231 -0.65187 -7.73507 0 255 0
1.00927 -0.638423 -7.78464 0 255 0
1.01958 -0.634951 -7.79332 0 255 0
-0.34262 -0.650286 -7.36277 0 255 0
0.00823808 -0.603396 -7.62138 0 255 0
-0.175237 -0.600195 -7.57589 0 255 0
-0.211296 -0.578478 -7.64794 0 255 0
1.08425 -0.63956 -7.83231 0 255 0
1.31272 -0.692995 -7.74025 0 255 0
-0.418856 -0.662134 -7.30068 0 255 0
-0.65872 -1.23015 -5.38937 0 255 0
0.963486 -0.671253 -7.72339 0 255 0
-0.30377 -0.647179 -7.39169 0 255 0
-0.350332 -0.618085 -7.47258 0 255 0
0.520484 -0.60322 -7.79502 0 255 0
0.750876 -0.640123 -7.75651 0 255 0
-0.507913 -1.2325 -5.44874 0 255 0
-0.262435 -1.23392 -5.53848 0 255 0
-0.421852 -0.667266 -7.32028 0 255 0
0.862374 -0.649131 -7.76143 0 255 0
0.966965 -0.675277 -7.72967 0 255 0
1.25535 -0.699006 -7.73768 0 255 0
-0.901334 -1.24281 -5.2946 0 255 0
0.591937 -0.619412 -7.78026 0 255 0
0.942826 -0.662102 -7.7502 0 255 0
2.16361 -1.20138 -6.32907 0 255 0
-0.512342 -0.676456 -7.27605 0 255 0
0.698272 -0.645359 -7.74149 0 255 0
2.15765 -1.20935 -6.30186 0 255 0
-0.341482 -1.23823 -5.50243 0 255 0
-0.262878 -1.23211 -5.54616 0 255 0
-0.415818 -0.675554 -7.30648 0 255 0
-0.432293 -0.666968 -7.32963 0 255 0
-0.297673 -0.663535 -7.38974 0 255 0
-0.578665 -0.829595 -6.77742 0 255 0
-0.378687 -0.68198 -7.32277 0 255 0
-0.201842 -0.647538 -7.47872 0 255 0
0.823886 -0.665345 -7.74122 0 255 0
1.31751 -0.723831 -7.71203 0 255 0
0.324798 -0.663477 -7.59943 0 255 0
-0.3592 -0.689674 -7.32505 0 255 0
1.31413 -0.744992 -7.68869 0 255 0
-0.642387 -0.786657 -6.88969 0 255 0
0.751252 -0.660449 -7.75688 0 255 0
0.771728 -0.659237 -7.76837 0 255 0
0.86239 -0.666159 -7.76398 0 255 0
0.878005 -0.669522 -7.76474 0 255 0
0.594795 -0.637983 -7.77896 0 255 0
1.09038 -0.671027 -7.82205 0 255 0
-0.585581 -1.24831 -5.42352 0 255 0
-0.37762 -0.674125 -7.36944 0 255 0
-0.39715 -0.666978 -7.37782 0 255 0
0.762832 -0.692911 -7.68732 0 255 0
0.768224 -0.665377 -7.76405 0 255 0
0.108368 -0.699806 -7.46651 0 255 0
0.239616 -0.660729 -7.63 0 255 0
0.755231 -0.668528 -7.75659 0 255 0
-0.341084 -0.585711 -7.73937 0 255 0
0.230811 -0.670223 -7.61098 0 255 0
0.507231 -0.907626 -6.85134 0 255 0
0.801061 -0.676101 -7.76411 0 255 0
-0.321095 -0.753618 -7.17263 0 255 0
-0.406039 -0.654955 -7.50075 0 255 0
0.64648 -0.663919 -7.7598 0 255 0
1.33104 -0.71972 -7.7643 0 255 0
-0.434482 -1.26442 -5.45726 0 255 0
-0.336919 -1.0806 -6.11208 0 255 0
-0.231329 -1.1361 -5.93528 0 255 0
-0.361897 -0.7104 -7.32572 0 255 0
0.972855 -0.699175 -7.76281 0 255 0
-0.592244 -0.768515 -7.08535 0 255 0
-0.618669 -0.720603 -7.23084 0 255 0
0.343605 -0.687949 -7.62318 0 255 0
0.337599 -0.682804 -7.6386 0 255 0
0.359593 -0.682836 -7.65007 0 255 0
-0.212988 -0.684258 -7.48997 0 255 0
0.0833736 -0.676016 -7.58505 0 255 0
-0.572072 -0.719031 -7.25588 0 255 0
-1.00702 -1.26991 -5.2874 0 255 0
-0.372941 -1.27026 -5.48906 0 255 0
-0.377436 -1.27427 -5.49673 0 255 0
-0.366506 -0.722713 -7.32962 0 255 0
-0.380688 -0.713102 -7.35162 0 255 0
1.30268 -0.836891 -7.43125 0 255 0
-0.39999 -0.731632 -7.30111 0 255 0
-0.167513 -0.700819 -7.46579 0 255 0
-0.629752 -0.723617 -7.25989 0 255 0
-0.0676192 -1.35044 -5.33592 0 255 0
-0.664016 -0.691963 -7.35244 0 255 0
-0.370827 -0.7201 -7.38481 0 255 0
0.945599 -0.714741 -7.76858 0 255 0
0.432775 -0.743488 -7.53323 0 255 0
0.821681 -0.715793 -7.74326 0 255 0
0.675438 -0.764914 -7.53123 0 255 0
1.03651 -0.718877 -7.8209 0 255 0
1.23307 -0.759847 -7.75226 0 255 0
1.04718 -0.711832 -7.85496 0 255 0
1.04675 -0.709284 -7.85798 0 255 0
-0.419243 -0.758407 -7.27611 0 255 0
-0.260796 -1.28651 -5.55059 0 255 0
-0.305265 -0.7419 -7.37906 0 255 0
0.644914 -0.704326 -7.76187 0 255 0
0.843073 -0.750874 -7.70705 0 255 0
-0.328679 -0.737637 -7.37807 0 255 0
-0.294464 -0.74135 -7.38448 0 255 0
-0.301247 -0.740255 -7.39245 0 255 0
1.10598 -0.74376 -7.81905 0 255 0
1.24574 -0.77722 -7.75323 0 255 0
-0.253726 -0.716356 -7.4758 0 255 0
0.960539 -0.736767 -7.78746 0 255 0
0.648679 -0.711241 -7.7756 0 255 0
0.648277 -0.710531 -7.78353 0 255 0
0.956393 -0.744507 -7.7827 0 255 0
-0.578959 -0.741373 -7.31145 0 255 0
-0.346691 -0.765763 -7.32675 0 255 0
0.949191 -0.747248 -7.77561 0 255 0
-0.331936 -1.30737 -5.51566 0 255 0
1.02736 -0.740104 -7.83178 0 255 0
1.25051 -0.786713 -7.75449 0 255 0
-0.361925 -1.08885 -6.21323 0 255 0
-0.41561 -0.783337 -7.26159 0 255 0
-0.42101 -0.778554 -7.26856 0 255 0
1.03678 -0.742922 -7.83067 0 255 0
0.7864 -0.742273 -7.76391 0 255 0
-0.340689 -0.774783 -7.32766 0 255 0
0.808354 -0.744141 -7.76853 0 255 0
0.964942 -0.77609 -7.73324 0 255 0
-0.648638 -0.768984 -7.25422 0 255 0
-0.52704 -0.785839 -7.24903 0 255 0
-0.405373 -0.764496 -7.33236 0 255 0
0.312219 -0.773464 -7.54212 0 255 0
-0.577876 -0.750069 -7.34375 0 255 0
-0.374841 -0.779451 -7.31655 0 255 0
0.85664 -0.828522 -7.50743 0 255 0
0.943008 -0.759214 -7.78793 0 255 0
-0.390485 -1.08015 -6.28422 0 255 0
-0.483581 -1.31104 -5.47474 0 255 0
-0.339574 -0.781023 -7.33862 0 255 0
0.858769 -0.760859 -7.77041 0 255 0
-0.579331 -1.31646 -5.422 0 255 0
-0.196525 -1.31862 -5.56592 0 255 0
1.10038 -0.756306 -7.85729 0 255 0
-0.489654 -1.2624 -5.62886 0 255 0
-0.489654 -1.2624 -5.62886 0 255 0
0.789864 -0.76486 -7.75173 0 255 0
0.802202 -0.783817 -7.70316 0 255 0
0.84834 -0.781301 -7.7179 0 255 0
-0.571435 -1.31967 -5.42527 0 255 0
-0.624555 -1.32092 -5.41189 0 255 0
0.968679 -0.770813 -7.77605 0 255 0
-0.855481 -1.32796 -5.32412 0 255 0
0.867328 -0.766472 -7.77604 0 255 0
1.06661 -0.769031 -7.83343 0 255 0
1.09749 -0.763692 -7.8471 0 255 0
-0.54794 -0.779442 -7.29355 0 255 0
0.830094 -0.768433 -7.76584 0 255 0
-0.554328 -1.32462 -5.43228 0 255 0
-0.554994 -1.32487 -5.43512 0 255 0
-0.494322 -0.788733 -7.28618 0 255 0
0.849199 -0.769675 -7.77257 0 255 0
0.38572 -0.790003 -7.57937 0 255 0
-0.541901 -0.803837 -7.2723 0 255 0
-0.352696 -0.838001 -7.19682 0 255 0
1.30025 -0.82507 -7.74027 0 255 0
0.840497 -0.792949 -7.72839 0 255 0
0.839125 -0.781022 -7.75637 0 255 0
0.838546 -0.778919 -7.7608 0 255 0
-0.544244 -1.33029 -5.43588 0 255 0
0.90044 -0.790855 -7.74011 0 255 0
0.170687 -0.813389 -7.46653 0 255 0
0.173611 -0.814717 -7.46156 0 255 0
0.936808 -0.788736 -7.76009 0 255 0
-0.293507 -1.33753 -5.52449 0 255 0
0.745789 -0.773346 -7.76741 0 255 0
0.190631 -0.766891 -7.61657 0 255 0
0.377367 -0.795973 -7.58893 0 255 0
-0.704211 -0.780522 -7.32014 0 255 0
-0.246801 -1.32991 -5.56029 0 255 0
0.160888 -0.808108 -7.48713 0 255 0
0.423654 -0.792362 -7.64343 0 255 0
-0.466898 -0.779067 -7.42107 0 255 0
0.448356 -0.762043 -7.74018 0 255 0
-0.62361 -0.8166 -7.241 0 255 0
0.902782 -0.799009 -7.75255 0 255 0
0.904689 -0.804797 -7.75073 0 255 0
-0.156511 -0.783774 -7.49654 0 255 0
1.30263 -0.9284 -7.42419 0 255 0
-0.365963 -0.817924 -7.33436 0 255 0
0.305897 -0.800441 -7.59199 0 255 0
-0.656892 -0.810279 -7.2937 0 255 0
-0.694173 -0.782363 -7.35432 0 255 0
1.02664 -0.79277 -7.8492 0 255 0
1.10666 -0.805562 -7.83602 0 255 0
-0.363012 -0.819957 -7.3409 0 255 0
0.803143 -0.793022 -7.78252 0 255 0
0.858464 -0.798073 -7.78199 0 255 0
1.01314 -0.825828 -7.7469 0 255 0
-0.177609 -0.791985 -7.49504 0 255 0
0.0456242 -0.790474 -7.56991 0 255 0
0.0407431 -0.78653 -7.57677 0 255 0
0.593278 -0.776478 -7.77309 0 255 0
1.08966 -0.802332 -7.84742 0 255 0
-0.410833 -1.30044 -5.63089 0 255 0
0.764547 -0.800943 -7.75912 0 255 0
-0.583781 -0.833818 -7.2559 0 255 0
-0.463954 -0.8271 -7.32883 0 255 0
1.06552 -0.897212 -7.50825 0 255 0
1.05045 -0.805638 -7.83724 0 255 0
1.03678 -0.80022 -7.84282 0 255 0
0.0378653 -0.795617 -7.57161 0 255 0
-0.304706 -0.819399 -7.38957 0 255 0
-0.0246226 -0.830902 -7.43775 0 255 0
0.609626 -0.795719 -7.75673 0 255 0
0.919229 -0.814718 -7.77076 0 255 0
0.922237 -0.821482 -7.76143 0 255 0
-0.436472 -1.34966 -5.49142 0 255 0
-0.654552 -0.804031 -7.34993 0 255 0
-0.152851 -0.802854 -7.50154 0 255 0
0.708356 -0.839309 -7.62862 0 255 0
0.982073 -0.837388 -7.73885 0 255 0
0.764213 -0.802681 -7.79073 0 255 0
-0.658798 -0.836036 -7.28976 0 255 0
-0.545254 -0.846057 -7.27085 0 255 0
0.666945 -0.796094 -7.77694 0 255 0
-0.451626 -0.849479 -7.27971 0 255 0
0.55776 -0.791083 -7.76306 0 255 0
-0.53166 -1.35529 -5.45963 0 255 0
-0.455503 -0.853275 -7.27231 0 255 0
-0.581583 -1.29637 -5.63743 0 255 0
-0.379402 -0.839225 -7.33779 0 255 0
-0.528983 -0.835077 -7.26974 0 255 0
0.20971 -0.846222 -7.49159 0 255 0
0.1692 -0.814669 -7.60289 0 255 0
0.277761 -0.835274 -7.56121 0 255 0
1.87413 -1.29605 -6.31153 0 255 0
-0.313056 -0.835268 -7.37883 0 255 0
0.651756 -0.79783 -7.80618 0 255 0
1.11146 -0.823133 -7.85948 0 255 0
1.11146 -0.823133 -7.85948 0 255 0
-0.47167 -0.842201 -7.28738 0 255 0
0.327897 -0.847672 -7.53517 0 255 0
1.04635 -0.825108 -7.83765 0 255 0
-0.440795 -0.813612 -7.40481 0 255 0
-0.216682 -0.813539 -7.49358 0 255 0
-0.0369686 -0.84823 -7.43674 0 255 0
-0.0475139 -0.842887 -7.44987 0 255 0
1.0574 -0.8314 -7.83157 0 255 0
-0.17396 -0.813251 -7.51274 0 255 0
1.09257 -0.831394 -7.84409 0 255 0
1.08581 -0.841916 -7.81672 0 255 0
-0.438513 -0.86603 -7.27395 0 255 0
-0.480227 -1.36859 -5.46757 0 255 0
0.756225 -0.824137 -7.76881 0 255 0
-0.648648 -1.36808 -5.41438 0 255 0
-0.550468 -0.864332 -7.26266 0 255 0
0.295468 -0.840908 -7.57991 0 255 0
1.0531 -0.838898 -7.83446 0 255 0
-0.0326293 -0.85826 -7.43833 0 255 0
1.05088 -0.829096 -7.85134 0 255 0
1.0533 -0.830663 -7.85015 0 255 0
-0.389421 -0.849045 -7.35641 0 255 0
0.478296 -0.850378 -7.61606 0 255 0
-0.542987 -0.872331 -7.2435 0 255 0
0.904402 -0.855172 -7.73283 0 255 0
0.955331 -0.858804 -7.73813 0 255 0
-0.424557 -1.14587 -6.32071 0 255 0
0.491687 -0.853212 -7.63227 0 255 0
0.551481 -0.816319 -7.76294 0 255 0
0.937463 -0.860974 -7.72721 0 255 0
-0.432634 -1.32837 -5.63584 0 255 0
-0.422451 -0.880255 -7.27772 0 255 0
0.170361 -0.874549 -7.47505 0 255 0
-0.670816 -1.3791 -5.40776 0 255 0
-0.570202 -0.866152 -7.30657 0 255 0
-0.324134 -0.845166 -7.42171 0 255 0
-0.385628 -0.865234 -7.34664 0 255 0
0.215723 -0.848021 -7.59124 0 255 0
0.908906 -0.871895 -7.72103 0 255 0
1.16395 -0.867105 -7.79851 0 255 0
-0.742727 -1.38578 -5.37029 0 255 0
0.585416 -0.82947 -7.77069 0 255 0
-0.605772 -0.860949 -7.2796 0 255 0
-0.492312 -0.888943 -7.24254 0 255 0
0.195551 -0.879573 -7.49374 0 255 0
0.839496 -0.851918 -7.77687 0 255 0
0.90097 -0.879945 -7.71889 0 255 0
1.04188 -0.859893 -7.81578 0 255 0
1.10896 -0.846347 -7.88972 0 255 0
-0.536169 -0.891881 -7.25418 0 255 0
-0.803355 -0.727426 -7.7997 0 255 0
1.02086 -0.87389 -7.77574 0 255 0
1.29243 -0.99531 -7.40362 0 255 0
-0.605947 -0.874871 -7.29281 0 255 0
-0.540823 -0.851471 -7.4393 0 255 0
0.180213 -0.889419 -7.48186 0 255 0
-0.590034 -1.33179 -5.63325 0 255 0
-0.218605 -0.85334 -7.51452 0 255 0
0.580282 -0.836783 -7.77993 0 255 0
0.218956 -0.884257 -7.51904 0 255 0
0.761448 -0.854825 -7.78419 0 255 0
0.936237 -0.884667 -7.73179 0 255 0
1.25754 -0.897147 -7.76419 0 255 0
-0.476874 -1.39406 -5.47381 0 255 0
-0.462807 -0.898807 -7.27024 0 255 0
-0.456956 -0.904881 -7.26308 0 255 0
-0.487232 -1.39554 -5.47352 0 255 0
-0.384593 -0.903179 -7.27247 0 255 0
0.364117 -0.875817 -7.62777 0 255 0
-0.818706 -1.40531 -5.34619 0 255 0
-0.798692 -1.40614 -5.35221 0 255 0
-0.552205 -1.39888 -5.45451 0 255 0
-0.649232 -0.866626 -7.33886 0 255 0
-0.373984 -0.960664 -7.12247 0 255 0
-0.363999 -0.892211 -7.35494 0 255 0
-0.0781766 -0.911327 -7.36803 0 255 0
1.08922 -0.884395 -7.82017 0 255 0
0.20584 -0.893414 -7.53007 0 255 0
0.20584 -0.893414 -7.53007 0 255 0
0.833302 -0.881326 -7.76405 0 255 0
0.599949 -0.860257 -7.77123 0 255 0
-0.438485 -0.918771 -7.26337 0 255 0
0.272656 -0.881177 -7.5941 0 255 0
0.308481 -0.888327 -7.58936 0 255 0
-0.649144 -1.40749 -5.40382 0 255 0
-0.448755 -0.919232 -7.26486 0 255 0
-0.461867 -0.917773 -7.28314 0 255 0
0.810071 -0.884339 -7.75773 0 255 0
-0.634855 -0.901821 -7.26892 0 255 0
-0.336773 -0.891855 -7.39801 0 255 0
0.39852 -0.939984 -7.44948 0 255 0
0.581691 -0.861237 -7.77634 0 255 0
0.5923 -0.862843 -7.7916 0 255 0
0.594802 -0.864164 -7.7834 0 255 0
-0.542796 -0.922512 -7.24473 0 255 0
-0.372575 -0.904491 -7.36199 0 255 0
-0.540205 -0.92587 -7.25157 0 255 0
-0.595157 -0.910034 -7.27777 0 255 0
-0.549434 -0.930026 -7.26898 0 255 0
-0.595655 -0.885326 -7.36735 0 255 0
0.596474 -0.877389 -7.76258 0 255 0
0.742969 -0.883287 -7.78099 0 255 0
-0.527107 -1.41716 -5.44962 0 255 0
-0.0804218 -0.900131 -7.46719 0 255 0
-0.414209 -0.92108 -7.32926 0 255 0
0.275241 -0.918224 -7.54521 0 255 0
-0.521541 -0.935431 -7.24769 0 255 0
-0.532598 -1.42347 -5.4518 0 255 0
-0.0233582 -0.931122 -7.44268 0 255 0
1.0335 -0.914903 -7.81259 0 255 0
-0.331173 -0.918558 -7.3972 0 255 0
-0.330766 -0.919068 -7.39672 0 255 0
0.229262 -0.929145 -7.54144 0 255 0
-0.398091 -0.934851 -7.35664 0 255 0
-0.388629 -0.945101 -7.32422 0 255 0
-0.323976 -0.923303 -7.40195 0 255 0
-0.251538 -1.40263 -5.68624 0 255 0
-0.21475 -0.902009 -7.52326 0 255 0
0.620011 -0.911783 -7.74309 0 255 0
0.735513 -0.910902 -7.7783 0 255 0
0.758501 -0.915933 -7.77577 0 255 0
0.189995 -0.944947 -7.50977 0 255 0
0.770505 -0.920214 -7.77882 0 255 0
-0.599708 -0.938629 -7.29334 0 255 0
1.01622 -0.925324 -7.83824 0 255 0
-0.534602 -1.43502 -5.46904 0 255 0
-0.0728177 -1.50162 -5.36642 0 255 0
-0.234868 -0.91369 -7.49431 0 255 0
-0.239747 -0.898039 -7.56132 0 255 0
0.955975 -0.946012 -7.75174 0 255 0
-0.373345 -0.938661 -7.36702 0 255 0
-0.38566 -0.927299 -7.38668 0 255 0
-0.556323 -0.960241 -7.29028 0 255 0
0.14166 -0.934074 -7.55034 0 255 0
0.133137 -0.939726 -7.53422 0 255 0
-0.55712 -1.38411 -5.6457 0 255 0
0.245357 -0.946051 -7.55245 0 255 0
0.617134 -0.91318 -7.77606 0 255 0
1.02355 -0.925031 -7.84922 0 255 0
-0.337471 -0.931944 -7.41587 0 255 0
0.45766 -0.938532 -7.6444 0 255 0
0.743762 -0.925773 -7.77447 0 255 0
-0.387523 -0.950241 -7.35542 0 255 0
-0.0775673 -0.952365 -7.46215 0 255 0
0.139963 -0.946769 -7.53344 0 255 0
0.201371 -0.955955 -7.51209 0 255 0
0.241528 -0.952189 -7.54138 0 255 0
0.0910225 -0.930937 -7.59707 0 255 0
0.914378 -0.949156 -7.74059 0 255 0
0.673282 -0.945379 -7.70853 0 255 0
0.000421596 -1.0708 -7.02416 0 255 0
-0.483039 -1.44486 -5.47636 0 255 0
-0.268941 -0.930183 -7.50272 0 255 0
0.807345 -0.93917 -7.76499 0 255 0
0.161966 -0.962479 -7.5034 0 255 0
0.250549 -0.952492 -7.55645 0 255 0
0.244642 -0.948341 -7.56779 0 255 0
-0.498583 -0.969 -7.33025 0 255 0
0.759953 -0.935444 -7.77564 0 255 0
-0.482632 -1.40268 -5.62805 0 255 0
0.222214 -0.966019 -7.52206 0 255 0
-0.465652 -1.44534 -5.50599 0 255 0
0.204324 -0.964564 -7.51626 0 255 0
0.579969 -0.921744 -7.77946 0 255 0
1.09386 -0.946737 -7.85462 0 255 0
-0.420071 -0.962629 -7.34408 0 255 0
-0.336571 -0.999643 -7.23823 0 255 0
0.242442 -0.965868 -7.54435 0 255 0
0.839306 -0.947078 -7.7813 0 255 0
1.03768 -0.945022 -7.84777 0 255 0
1.03787 -0.94932 -7.84109 0 255 0
-0.320489 -1.44216 -5.57312 0 255 0
-0.32851 -0.945236 -7.42242 0 255 0
-0.304905 -1.4582 -5.54577 0 255 0
-0.392494 -0.949477 -7.38431 0 255 0
-0.241674 -0.949255 -7.46997 0 255 0
-0.500433 -1.45952 -5.46969 0 255 0
-0.101041 -0.964266 -7.4898 0 255 0
-0.622951 -0.95466 -7.33292 0 255 0
-0.474329 -0.986419 -7.27413 0 255 0
0.743466 -0.947412 -7.7849 0 255 0
1.07997 -0.963093 -7.84068 0 255 0
-0.497933 -1.45818 -5.4834 0 255 0
-0.365256 -0.975652 -7.3571 0 255 0
0.288853 -0.982406 -7.53709 0 255 0
-0.529239 -0.9964 -7.24847 0 255 0
0.578525 -0.933971 -7.78707 0 255 0
0.425041 -0.971448 -7.6286 0 255 0
-0.143462 -0.895209 -7.77394 0 255 0
0.302397 -0.973213 -7.57576 0 255 0
-0.00350696 -0.977704 -7.48673 0 255 0
0.282427 -0.983068 -7.56349 0 255 0
-0.0195324 -0.985902 -7.46225 0 255 0
0.216798 -0.986457 -7.53827 0 255 0
-0.497307 -1.4672 -5.48359 0 255 0
-0.506308 -1.00599 -7.24772 0 255 0
-0.281217 -1.36539 -5.92571 0 255 0
0.158326 -0.988641 -7.5188 0 255 0
-0.357734 -1.48021 -5.52907 0 255 0
0.2626 -0.990398 -7.5551 0 255 0
0.345916 -0.987969 -7.59123 0 255 0
1.0817 -0.98299 -7.83856 0 255 0
-0.177305 -1.48627 -5.55569 0 255 0
0.394084 -0.983508 -7.62834 0 255 0
1.09624 -0.962663 -7.90005 0 255 0
-0.427037 -1.00478 -7.29897 0 255 0
1.06712 -0.984739 -7.82827 0 255 0
1.06446 -0.974519 -7.8484 0 255 0
-0.0786304 -0.961327 -7.60877 0 255 0
0.809679 -0.978337 -7.76571 0 255 0
1.01171 -0.982668 -7.80824 0 255 0
-0.28022 -1.10648 -6.95011 0 255 0
-0.204055 -0.974507 -7.50141 0 255 0
-0.168821 -1.01773 -7.3573 0 255 0
0.836967 -0.986531 -7.76907 0 255 0
1.08209 -0.993 -7.80397 0 255 0
1.0916 -0.990617 -7.83142 0 255 0
-0.465989 -0.957309 -7.47376 0 255 0
0.194265 -1.00415 -7.51152 0 255 0
0.916536 -1.01306 -7.70302 0 255 0
-0.370819 -1.48605 -5.52662 0 255 0
0.224059 -0.997719 -7.54338 0 255 0
0.390638 -0.99286 -7.61935 0 255 0
0.741711 -0.97407 -7.78647 0 255 0
0.246761 -0.987851 -7.58366 0 255 0
0.816184 -0.98876 -7.76092 0 255 0
-0.397443 -0.99116 -7.40848 0 255 0
-0.330498 -1.04808 -7.21956 0 255 0
-0.171341 -1.01547 -7.39431 0 255 0
0.80735 -0.988015 -7.77545 0 255 0
0.949835 -1.0138 -7.75677 0 255 0
0.164678 -1.00467 -7.53307 0 255 0
1.02492 -0.988248 -7.85081 0 255 0
0.933433 -1.00518 -7.76779 0 255 0
-0.246061 -1.49935 -5.54703 0 255 0
-0.441869 -1.02714 -7.28983 0 255 0
0.185083 -1.00754 -7.572 0 255 0
0.759938 -1.0028 -7.76241 0 255 0
-0.038196 -1.02854 -7.41794 0 255 0
0.385259 -1.00021 -7.64969 0 255 0
0.843673 -0.997997 -7.79075 0 255 0
-0.422546 -1.07285 -7.15155 0 255 0
-0.252264 -0.989684 -7.48539 0 255 0
0.218449 -1.02138 -7.52852 0 255 0
0.217523 -1.02301 -7.52975 0 255 0
0.27494 -1.01424 -7.57114 0 255 0
1.07359 -1.00507 -7.84201 0 255 0
-0.448079 -1.02245 -7.31796 0 255 0
-0.17102 -1.03034 -7.39867 0 255 0
-0.0516742 -1.03281 -7.41521 0 255 0
0.743197 -0.995502 -7.78284 0 255 0
0.950423 -1.022 -7.75329 0 255 0
-0.0618252 -1.02612 -7.45048 0 255 0
0.748757 -0.996338 -7.79021 0 255 0
-0.512716 -1.02922 -7.31961 0 255 0
-0.511466 -1.03025 -7.32219 0 255 0
0.813179 -1.01408 -7.75536 0 255 0
1.02175 -1.01213 -7.82842 0 255 0
-0.403924 -1.01973 -7.36797 0 255 0
-0.490789 -0.986672 -7.5205 0 255 0
0.957036 -1.03776 -7.73195 0 255 0
0.522529 -0.996025 -7.75902 0 255 0
0.999013 -1.03213 -7.75711 0 255 0
1.09378 -1.03776 -7.8001 0 255 0
-0.539859 -1.03387 -7.27636 0 255 0
0.160719 -1.02062 -7.55585 0 255 0
0.756555 -1.01715 -7.75939 0 255 0
0.778627 -1.02164 -7.74965 0 255 0
-0.0854934 -1.5634 -5.37192 0 255 0
-0.420912 -1.03294 -7.34627 0 255 0
-0.0879821 -0.998408 -7.60502 0 255 0
0.295308 -1.02433 -7.59749 0 255 0
0.831345 -1.01495 -7.78093 0 255 0
-0.6791 -1.0058 -7.39269 0 255 0
0.628884 -1.00733 -7.74527 0 255 0
0.910539 -1.03222 -7.7585 0 255 0
-0.479413 -1.05801 -7.27277 0 255 0
0.199045 -1.02868 -7.558 0 255 0
0.843061 -1.03051 -7.76077 0 255 0
0.837573 -1.02205 -7.77619 0 255 0
-0.318782 -1.02664 -7.41697 0 255 0
0.856274 -1.01989 -7.80108 0 255 0
0.949755 -1.03087 -7.79936 0 255 0
1.08356 -1.0375 -7.81436 0 255 0
1.01131 -1.035 -7.7987 0 255 0
-0.569745 -1.03422 -7.32016 0 255 0
-0.465582 -1.05161 -7.29124 0 255 0
-0.462728 -1.05577 -7.28518 0 255 0
-0.307963 -1.02892 -7.42257 0 255 0
-0.439308 -1.00555 -7.48132 0 255 0
-0.386096 -1.02292 -7.48434 0 255 0
-0.399979 -1.00657 -7.50499 0 255 0
0.593881 -1.00451 -7.78832 0 255 0
1.02951 -1.02436 -7.8513 0 255 0
-0.307332 -1.52384 -5.53982 0 255 0
0.733104 -1.0223 -7.77962 0 255 0
0.900182 -1.03624 -7.78544 0 255 0
1.77074 -1.52174 -5.9562 0 255 0
1.04062 -1.04092 -7.83145 0 255 0
1.07429 -1.0321 -7.85159 0 255 0
-0.207494 -1.52926 -5.55743 0 255 0
0.041404 -1.03766 -7.5372 0 255 0
0.544838 -1.0269 -7.73588 0 255 0
-0.333251 -1.51202 -5.54421 0 255 0
-0.336344 -1.51603 -5.54584 0 255 0
0.0646966 -1.04424 -7.53253 0 255 0
-0.525033 -1.06321 -7.2993 0 255 0
-0.528546 -1.04078 -7.33317 0 255 0
-0.412983 -1.04985 -7.36369 0 255 0
-0.327593 -1.04614 -7.41045 0 255 0
1.08883 -1.03896 -7.85184 0 255 0
1.08105 -1.06457 -7.79094 0 255 0
-0.372829 -1.05988 -7.3621 0 255 0
2.09761 -1.53173 -6.1675 0 255 0
-0.338888 -1.04687 -7.41233 0 255 0
-0.374443 -1.05826 -7.37581 0 255 0
-0.540477 -1.07091 -7.27856 0 255 0
-0.628415 -1.05141 -7.31917 0 255 0
0.742399 -1.05524 -7.73915 0 255 0
0.742399 -1.05524 -7.73915 0 255 0
0.866417 -1.0425 -7.81711 0 255 0
-0.0798989 -1.07766 -7.4083 0 255 0
-0.0841031 -1.07331 -7.42075 0 255 0
-0.311361 -1.05639 -7.43769 0 255 0
0.564132 -1.04298 -7.72914 0 255 0
-0.378585 -1.52998 -5.51215 0 255 0
0.641445 -1.03594 -7.80248 0 255 0
1.01329 -1.07263 -7.77705 0 255 0
0.252588 -1.07014 -7.56454 0 255 0
0.552098 -1.06191 -7.69339 0 255 0
-0.331434 -1.54774 -5.53711 0 255 0
-0.41112 -1.33441 -6.3388 0 255 0
-0.685247 -0.941639 -7.88784 0 255 0
-0.339322 -1.06157 -7.42476 0 255 0
2.38306 -1.42096 -6.84819 0 255 0
-0.246112 -1.53494 -5.58283 0 255 0
-0.509422 -1.08093 -7.36519 0 255 0
0.745435 -1.06353 -7.77974 0 255 0
0.244106 -1.07498 -7.58333 0 255 0
0.861752 -1.07366 -7.78362 0 255 0
0.508632 -1.07341 -7.6804 0 255 0
-0.340924 -1.55367 -5.54593 0 255 0
0.915853 -1.08347 -7.75944 0 255 0
0.924263 -1.077 -7.80117 0 255 0
1.30089 -1.21829 -7.32809 0 255 0
-0.498185 -1.10068 -7.29335 0 255 0
0.947963 -1.08346 -7.81166 0 255 0
0.522881 -1.08355 -7.68285 0 255 0
-0.486351 -1.10359 -7.31754 0 255 0
0.816129 -1.08196 -7.77062 0 255 0
0.815396 -1.08084 -7.7723 0 255 0
-0.337484 -1.55745 -5.54602 0 255 0
-0.365932 -1.09521 -7.3747 0 255 0
-0.418307 -1.5414 -5.56126 0 255 0
-0.418307 -1.5414 -5.56126 0 255 0
0.528219 -1.1027 -7.63561 0 255 0
1.0691 -1.07973 -7.86112 0 255 0
-0.467665 -1.11577 -7.28512 0 255 0
0.215894 -1.0821 -7.64029 0 255 0
1.04865 -1.09872 -7.81853 0 255 0
-0.192186 -1.55158 -5.60247 0 255 0
-0.316946 -1.09377 -7.42184 0 255 0
-0.150501 -1.08946 -7.47629 0 255 0
1.10816 -1.10791 -7.81318 0 255 0
-0.0758854 -1.11958 -7.41758 0 255 0
-0.0818514 -1.1123 -7.4314 0 255 0
0.928615 -1.09927 -7.78254 0 255 0
-0.444299 -1.10196 -7.40907 0 255 0
0.440243 -1.0906 -7.69188 0 255 0
0.75121 -1.09934 -7.76176 0 255 0
-0.0527386 -1.11467 -7.44578 0 255 0
0.910628 -1.11602 -7.7432 0 255 0
0.904334 -1.10666 -7.78176 0 255 0
1.66414 -1.55722 -6.10613 0 255 0
-0.627727 -1.11181 -7.32962 0 255 0
0.819901 -1.10684 -7.76268 0 255 0
0.814587 -1.10088 -7.77232 0 255 0
0.862107 -1.10847 -7.76622 0 255 0
1.68058 -1.56155 -6.09735 0 255 0
-0.202454 -1.52733 -5.69378 0 255 0
-0.428294 -1.07737 -7.51141 0 255 0
0.430576 -1.09248 -7.70577 0 255 0
-0.39548 -1.09567 -7.40781 0 255 0
-0.380633 -1.11798 -7.37167 0 255 0
0.868221 -1.09956 -7.81755 0 255 0
-0.248983 -1.579 -5.57531 0 255 0
-0.378183 -1.12934 -7.37824 0 255 0
-0.170127 -1.09608 -7.60245 0 255 0
0.974145 -1.13447 -7.75789 0 255 0
0.999758 -1.13332 -7.7671 0 255 0
0.917754 -1.12429 -7.80333 0 255 0
-0.524103 -1.10725 -7.44664 0 255 0
0.116439 -1.10355 -7.64164 0 255 0
1.76527 -1.57692 -6.11433 0 255 0
0.0660842 -1.12023 -7.58829 0 255 0
-0.0703777 -1.13523 -7.45023 0 255 0
0.560823 -1.12267 -7.69951 0 255 0
0.867771 -1.12293 -7.78801 0 255 0
-0.485449 -1.5816 -5.48358 0 255 0
0.159138 -1.11866 -7.57677 0 255 0
1.08464 -1.13984 -7.80774 0 255 0
-0.233685 -1.59368 -5.56101 0 255 0
-0.719471 -1.12614 -7.29488 0 255 0
0.250388 -1.1285 -7.58891 0 255 0
1.23511 -1.13495 -7.82143 0 255 0
-0.443333 -1.12426 -7.40765 0 255 0
-0.116755 -1.13741 -7.44693 0 255 0
-0.521955 -1.58201 -5.48587 0 255 0
-0.521955 -1.58201 -5.48587 0 255 0
-0.488344 -1.58577 -5.47772 0 255 0
-0.488991 -1.58587 -5.48199 0 255 0
0.707108 -1.11507 -7.79821 0 255 0
-0.421908 -1.14238 -7.36467 0 255 0
-0.105157 -1.14804 -7.44489 0 255 0
-0.112106 -1.1427 -7.45032 0 255 0
-0.0971703 -1.14678 -7.45379 0 255 0
0.0212426 -1.11586 -7.62933 0 255 0
-0.122053 -1.14091 -7.45617 0 255 0
0.734382 -1.12283 -7.79284 0 255 0
0.0423954 -1.13748 -7.54954 0 255 0
0.901702 -1.20033 -7.53756 0 255 0
-0.334054 -1.20472 -7.20331 0 255 0
-0.410575 -1.12716 -7.43669 0 255 0
1.87067 -1.59383 -6.14065 0 255 0
