ply
format ascii 1.0
element vertex 1361
property float x
property float y
property float z
property uchar red
property uchar green
property uchar blue
element face 0
end_header
0.0726524 0.482958 -7.43499 0 255 0
-0.882573 -1.17613 -5.43734 0 255 0
-0.669096 -1.33463 -5.5283 0 255 0
-0.282299 -2.15405 -5.71637 0 255 0
-1.00528 -0.357833 -5.33806 0 255 0
-0.842499 -0.414092 -5.39824 0 255 0
0.712075 -1.38166 -7.76667 0 255 0
1.27634 1.29028 -7.38216 0 255 0
0.951735 -0.932848 -7.7206 0 255 0
0.528208 -1.15547 -7.61383 0 255 0
0.892774 0.522379 -7.66232 0 255 0
0.933802 1.6941 -7.86606 0 255 0
0.898016 -0.079735 -7.61651 0 255 0
1.26058 -0.591729 -7.66247 0 255 0
1.0398 0.596355 -7.71966 0 255 0
1.10105 -0.760089 -7.83078 0 255 0
-0.872127 1.78632 -7.24581 0 255 0
-0.393544 -1.04829 -5.59634 0 255 0
0.0520002 0.940173 -7.31368 0 255 0
0.239879 0.801959 -7.46875 0 255 0
0.22042 0.801324 -7.46386 0 255 0
0.672297 0.702674 -7.56047 0 255 0
-0.600884 -0.228402 -5.47179 0 255 0
-0.526035 -1.26477 -5.57263 0 255 0
-0.601244 -1.40856 -5.55487 0 255 0
-0.348366 1.28132 -7.42102 0 255 0
0.0235214 0.93028 -7.30648 0 255 0
-0.126144 0.537528 -7.28527 0 255 0
0.211225 0.460527 -7.46394 0 255 0
0.268326 0.305471 -7.58286 0 255 0
0.766369 -0.0140134 -7.71 0 255 0
-0.202645 -1.09098 -5.66676 0 255 0
-0.157129 -1.1428 -5.68104 0 255 0
0.640902 -1.35701 -7.74704 0 255 0
0.702144 0.473707 -7.59264 0 255 0
0.0403155 0.385286 -7.40984 0 255 0
0.284567 0.064803 -7.60643 0 255 0
-0.399471 -1.15761 -5.60344 0 255 0
0.686826 -1.3026 -7.75795 0 255 0
0.59404 0.239924 -7.61735 0 255 0
0.432707 -0.958566 -7.59978 0 255 0
-0.344858 1.86913 -7.38569 0 255 0
-1.01037 -0.323667 -5.3345 0 255 0
-0.795397 -0.414598 -5.4123 0 255 0
-0.337178 -0.615823 -5.58885 0 255 0
-0.88125 -0.652728 -5.39688 0 255 0
-0.9924 -0.696165 -5.37088 0 255 0
-0.437178 -0.842408 -5.56872 0 255 0
-0.170302 -0.890072 -5.66453 0 255 0
-0.495251 -1.01626 -5.5614 0 255 0
-0.223554 -1.79969 -5.71057 0 255 0
0.965612 1.6788 -7.87999 0 255 0
-0.368635 -0.568493 -5.57401 0 255 0
-0.652704 -0.67987 -5.47758 0 255 0
-0.804083 -0.772064 -5.43182 0 255 0
-0.182364 -1.03206 -5.6703 0 255 0
-0.223659 -1.53318 -5.69166 0 255 0
-0.297067 -1.55553 -5.66849 0 255 0
0.936068 1.7662 -7.86267 0 255 0
0.199073 -0.234694 -7.59394 0 255 0
-0.80245 -0.848924 -5.43657 0 255 0
1.21389 -0.652507 -7.6893 0 255 0
0.735604 -1.35476 -7.77906 0 255 0
0.281871 0.868243 -7.49499 0 255 0
-0.130989 0.774842 -7.26466 0 255 0
0.114154 0.822022 -7.45012 0 255 0
-0.402939 -0.30058 -5.54409 0 255 0
0.947855 0.120527 -7.64959 0 255 0
0.631997 1.78124 -7.74581 0 255 0
1.62626 2.08381 -6.36972 0 255 0
-0.479012 -0.451106 -5.52654 0 255 0
-0.592504 -1.36216 -5.55527 0 255 0
-0.588167 -1.41342 -5.55985 0 255 0
-0.582072 -1.26807 -5.55429 0 255 0
-0.4714 -1.27029 -5.59123 0 255 0
-0.500756 -1.96858 -5.6349 0 255 0
-0.446569 -1.60681 -5.61906 0 255 0
-0.361077 -0.588597 -5.57638 0 255 0
-0.397538 -2.06066 -5.67401 0 255 0
-0.322583 -1.28019 -5.64237 0 255 0
-0.259568 -0.795592 -5.62736 0 255 0
-0.259681 -0.795648 -5.6274 0 255 0
-0.224552 -0.265394 -5.60465 0 255 0
-0.201788 -0.72672 -5.64295 0 255 0
-0.219742 -1.00988 -5.65584 0 255 0
-0.285675 -1.933 -5.70221 0 255 0
-0.237139 -1.58383 -5.69012 0 255 0
-0.188171 -1.00147 -5.66463 0 255 0
-0.22838 -1.65772 -5.69617 0 255 0
-0.2363 -1.82608 -5.70666 0 255 0
-0.198631 -1.47837 -5.69713 0 255 0
-0.131237 -0.87558 -5.67745 0 255 0
-0.131427 -0.990741 -5.68452 0 255 0
-0.156992 -1.55202 -5.71621 0 255 0
-0.161748 -2.04066 -5.74859 0 255 0
-0.622172 -0.191154 -5.46135 0 255 0
-0.63402 -0.964571 -5.50425 0 255 0
-0.579319 -1.38875 -5.56145 0 255 0
-0.541916 -0.983287 -5.54027 0 255 0
-0.467357 -1.37099 -5.59962 0 255 0
-0.46459 -1.79749 -5.62682 0 255 0
-0.416318 -1.75504 -5.63914 0 255 0
-0.321377 -0.356669 -5.57911 0 255 0
-0.386132 -1.8018 -5.65343 0 255 0
-0.327256 -0.954841 -5.61296 0 255 0
-0.324376 -1.01815 -5.61961 0 255 0
-0.342034 -1.51719 -5.65008 0 255 0
-0.327179 -1.76304 -5.67227 0 255 0
-0.252561 -0.770996 -5.62824 0 255 0
-0.289714 -1.96932 -5.70037 0 255 0
-0.258094 -1.61373 -5.68474 0 255 0
-0.247612 -1.56881 -5.68577 0 255 0
-0.609758 -0.38056 -5.47722 0 255 0
-0.623336 -0.89707 -5.50393 0 255 0
-0.474421 -0.861915 -5.55659 0 255 0
-0.460545 -1.17641 -5.58584 0 255 0
-0.405557 -0.838558 -5.57926 0 255 0
-0.420696 -1.93463 -5.66041 0 255 0
-0.389467 -1.52401 -5.63429 0 255 0
-0.325014 -1.29932 -5.64233 0 255 0
-0.276134 -1.39073 -5.66467 0 255 0
-0.314336 -2.0668 -5.70015 0 255 0
-0.238659 -1.04704 -5.65174 0 255 0
-0.296597 -2.04419 -5.70525 0 255 0
-0.261803 -1.67413 -5.68743 0 255 0
-0.198308 -1.93967 -5.73063 0 255 0
-0.551643 -0.522255 -5.50421 0 255 0
-0.490928 -1.21099 -5.57855 0 255 0
-0.503756 -2.00233 -5.63168 0 255 0
-0.33902 -0.33274 -5.56797 0 255 0
-0.269916 -1.64887 -5.681 0 255 0
-0.158912 -0.759891 -5.65993 0 255 0
-0.482416 -0.522164 -5.52818 0 255 0
-0.481616 -1.24593 -5.58362 0 255 0
-0.318481 -2.01416 -5.697 0 255 0
-0.298116 -1.98477 -5.7004 0 255 0
-0.236183 -1.94793 -5.71829 0 255 0
-0.202396 -1.62668 -5.70364 0 255 0
0.259281 -0.637249 -7.70963 0 255 0
-0.218516 -1.17819 -5.66986 0 255 0
-0.443347 -1.25275 -5.6004 0 255 0
-0.481943 -1.54735 -5.60405 0 255 0
-0.319188 -0.241257 -5.57127 0 255 0
-0.601177 -0.257364 -5.47368 0 255 0
-0.230271 -1.59703 -5.69244 0 255 0
-0.28892 -0.923302 -5.62573 0 255 0
-0.308267 -1.94814 -5.69561 0 255 0
0.688254 1.85408 -7.76399 0 255 0
0.76484 1.34053 -7.82354 0 255 0
0.262425 1.27831 -7.31818 0 255 0
-0.201231 -1.23016 -5.68085 0 255 0
-0.341985 -1.70461 -5.66172 0 255 0
-0.211001 -1.81799 -5.71556 0 255 0
-0.166733 0.77801 -7.25557 0 255 0
-0.491722 -0.881109 -5.55118 0 255 0
0.140685 -0.991707 -7.51695 0 255 0
0.424423 0.874072 -7.459 0 255 0
0.570789 -0.126897 -7.70968 0 255 0
0.543158 -0.0186374 -7.70206 0 255 0
0.71139 0.284143 -7.62559 0 255 0
0.272485 1.37064 -7.29841 0 255 0
0.729698 0.456906 -7.60263 0 255 0
0.53569 -1.05663 -7.66918 0 255 0
0.121872 0.251723 -7.53515 0 255 0
-0.483739 1.56857 -7.19404 0 255 0
-0.511669 1.69023 -7.16276 0 255 0
0.354063 0.902759 -7.48841 0 255 0
-0.555978 -0.856937 -5.52647 0 255 0
-0.304816 -0.312062 -5.58222 0 255 0
-0.23629 0.677273 -7.26783 0 255 0
-0.086297 1.7093 -7.48982 0 255 0
0.0601603 0.977089 -7.31763 0 255 0
0.848683 1.83959 -7.82224 0 255 0
-0.12978 -0.578035 -5.65786 0 255 0
-0.869829 1.99246 -7.26582 0 255 0
0.60932 1.06598 -7.44212 0 255 0
0.419516 -0.994771 -7.60855 0 255 0
0.242288 -1.10032 -7.52747 0 255 0
-0.352015 0.953677 -7.2475 0 255 0
0.708106 1.50643 -7.76861 0 255 0
0.856496 -0.530299 -7.71926 0 255 0
0.998098 -0.322306 -7.68073 0 255 0
1.30819 1.38216 -7.42111 0 255 0
-0.236792 -0.302567 -5.60258 0 255 0
-0.465153 -0.598733 -5.54009 0 255 0
-0.263954 -0.957888 -5.63585 0 255 0
0.847993 1.90286 -7.81987 0 255 0
0.535915 1.37503 -7.734 0 255 0
0.022052 0.491584 -7.39456 0 255 0
1.08453 -0.113385 -7.73621 0 255 0
0.940326 -0.994313 -7.70971 0 255 0
0.979567 0.438496 -7.63526 0 255 0
0.371729 0.244244 -7.62511 0 255 0
0.975825 -0.51245 -7.70247 0 255 0
0.946942 -0.324962 -7.66141 0 255 0
0.282049 1.8885 -7.25 0 255 0
-0.935611 -0.427746 -5.36326 0 255 0
0.664799 0.518911 -7.57678 0 255 0
0.537377 0.0973295 -7.68036 0 255 0
0.750169 -0.477177 -7.72002 0 255 0
0.892399 -0.763155 -7.71989 0 255 0
0.904287 -0.826726 -7.67794 0 255 0
0.796246 0.600713 -7.64777 0 255 0
1.01651 0.362268 -7.64338 0 255 0
1.04674 0.0022558 -7.68885 0 255 0
0.8521 -0.373861 -7.71038 0 255 0
0.822911 -1.06815 -7.75896 0 255 0
1.01281 0.107767 -7.67116 0 255 0
0.721988 -0.0869601 -7.6837 0 255 0
0.728877 -0.177914 -7.69022 0 255 0
0.731942 -0.140358 -7.68509 0 255 0
0.8532 -0.445484 -7.71371 0 255 0
0.869453 0.45444 -7.64867 0 255 0
0.936932 -1.64529 -7.76077 0 255 0
1.31492 -0.691739 -7.65749 0 255 0
0.176933 -0.846814 -7.42672 0 255 0
0.44201 -0.998878 -7.60746 0 255 0
0.227589 0.20533 -7.57441 0 255 0
0.335529 -0.945086 -7.54936 0 255 0
0.74693 -1.76432 -7.80843 0 255 0
0.922734 -0.482367 -7.67475 0 255 0
1.29749 -0.776007 -7.64912 0 255 0
0.998272 -0.785903 -7.70424 0 255 0
0.965313 -0.942381 -7.70697 0 255 0
0.460376 0.387517 -7.55463 0 255 0
0.820464 0.130834 -7.66444 0 255 0
0.604094 0.0125918 -7.67339 0 255 0
0.60406 0.0124568 -7.67386 0 255 0
0.943544 -0.14231 -7.62644 0 255 0
1.32169 -0.660317 -7.65573 0 255 0
1.28234 -0.665055 -7.65167 0 255 0
0.913389 -1.91727 -7.76237 0 255 0
1.2863 -0.419456 -7.58236 0 255 0
0.834426 -0.513203 -7.71308 0 255 0
1.22779 -0.653088 -7.6907 0 255 0
0.829126 -0.712623 -7.72377 0 255 0
0.878638 -1.87063 -7.78735 0 255 0
0.530588 0.540998 -7.54855 0 255 0
0.884792 -0.131499 -7.64951 0 255 0
0.720043 -0.679484 -7.72826 0 255 0
0.713015 -1.06086 -7.75216 0 255 0
0.527371 0.317965 -7.59179 0 255 0
0.736976 -1.0635 -7.7645 0 255 0
0.752111 -1.44687 -7.78729 0 255 0
0.0231735 0.492894 -7.39604 0 255 0
0.902783 1.77398 -7.84777 0 255 0
0.757851 1.90943 -7.78682 0 255 0
0.585929 1.5815 -7.74021 0 255 0
0.788488 1.47326 -7.82551 0 255 0
0.0773082 1.04917 -7.3057 0 255 0
0.955 1.94451 -7.85453 0 255 0
0.823231 1.9318 -7.81018 0 255 0
0.2427 1.18304 -7.36095 0 255 0
-0.0429312 0.852394 -7.2946 0 255 0
0.505585 0.380693 -7.56893 0 255 0
0.675648 0.27531 -7.65183 0 255 0
0.923325 -0.434366 -7.67586 0 255 0
0.73359 -0.76549 -7.74743 0 255 0
0.211775 -0.916638 -7.4711 0 255 0
0.21403 -0.965502 -7.47795 0 255 0
0.488154 -1.3046 -7.68823 0 255 0
-0.181912 1.87706 -7.4412 0 255 0
0.841711 1.69879 -7.82785 0 255 0
0.644605 1.55657 -7.76367 0 255 0
-0.268159 1.36107 -7.44378 0 255 0
0.0445947 0.626551 -7.39672 0 255 0
0.421338 0.392915 -7.54268 0 255 0
0.256083 0.017439 -7.60046 0 255 0
0.567367 -0.914183 -7.76258 0 255 0
0.612953 -1.30794 -7.73045 0 255 0
0.613285 -1.30835 -7.73054 0 255 0
0.973467 -0.586964 -7.72241 0 255 0
-0.0810735 0.980702 -7.29238 0 255 0
0.184303 0.992495 -7.42403 0 255 0
0.746835 -0.409437 -7.72322 0 255 0
0.746869 -0.409318 -7.72299 0 255 0
0.56537 -1.35944 -7.71742 0 255 0
0.680354 -1.61609 -7.77845 0 255 0
0.748652 -1.68481 -7.80234 0 255 0
0.435903 -0.829381 -7.59085 0 255 0
0.175967 -1.14736 -7.50445 0 255 0
0.733433 -1.45843 -7.78638 0 255 0
0.860378 -2.46415 -7.79999 0 255 0
-0.337498 -0.995303 -5.61558 0 255 0
-0.741464 -0.677773 -5.44693 0 255 0
-0.537778 -1.41139 -5.57765 0 255 0
-0.604887 -1.31716 -5.54769 0 255 0
-0.814043 -0.38792 -5.40562 0 255 0
-0.169315 1.61914 -7.46448 0 255 0
-0.811589 -0.586341 -5.41671 0 255 0
-0.52252 -0.167805 -5.49449 0 255 0
-0.291186 -0.382425 -5.59029 0 255 0
-0.388949 -1.2483 -5.61706 0 255 0
-0.630221 0.160385 -5.44544 0 255 0
-0.187404 -1.1423 -5.67121 0 255 0
-0.216059 1.197 -7.46834 0 255 0
1.23622 -2.33903 -7.81166 0 255 0
0.75271 -1.46956 -7.79037 0 255 0
0.232655 0.601413 -7.50822 0 255 0
-0.452394 1.87614 -7.34742 0 255 0
-0.31889 0.972084 -7.26923 0 255 0
-0.618722 -1.26949 -5.54322 0 255 0
-0.61216 -1.51082 -5.55727 0 255 0
-0.612254 -1.51077 -5.55752 0 255 0
0.376878 -0.0484718 -7.6461 0 255 0
-0.595036 -1.78918 -5.58016 0 255 0
1.34741 2.25368 -7.30092 0 255 0
0.771157 0.405734 -7.61493 0 255 0
-0.867613 -0.840507 -5.41408 0 255 0
-0.749633 -1.29871 -5.49933 0 255 0
-0.749567 -1.29886 -5.49966 0 255 0
-0.3372 -0.995323 -5.61504 0 255 0
0.0630878 -0.608867 -7.55349 0 255 0
-0.164044 1.53963 -7.47109 0 255 0
-0.286197 -0.305618 -5.58845 0 255 0
-0.308958 -0.347566 -5.58091 0 255 0
-0.356652 -0.861716 -5.59667 0 255 0
-0.405036 -0.539876 -5.55551 0 255 0
-0.459491 -0.532095 -5.53753 0 255 0
-0.573725 -1.57261 -5.57393 0 255 0
-0.606203 -1.4772 -5.55702 0 255 0
-0.633814 -0.921104 -5.50145 0 255 0
-0.648857 -1.04346 -5.50534 0 255 0
-0.639899 -0.319863 -5.464 0 255 0
-0.775435 -1.04456 -5.46129 0 255 0
-0.789377 -0.522719 -5.42087 0 255 0
-0.799341 -0.629103 -5.42357 0 255 0
-0.860165 -1.02221 -5.43016 0 255 0
-0.858268 -0.457545 -5.39416 0 255 0
-0.868596 -0.368184 -5.38569 0 255 0
0.879019 1.82829 -7.83541 0 255 0
0.508611 0.0358942 -7.69234 0 255 0
-0.52483 -0.763189 -5.52948 0 255 0
-0.561013 -1.57102 -5.57691 0 255 0
-0.64442 -1.37946 -5.53792 0 255 0
-0.666275 -0.932123 -5.48982 0 255 0
-0.692744 -0.988439 -5.48794 0 255 0
-0.692038 -0.989238 -5.48665 0 255 0
-0.721645 -0.920516 -5.47059 0 255 0
-0.794101 -1.3432 -5.48351 0 255 0
-0.8488 -0.836067 -5.41973 0 255 0
-0.846469 -0.65096 -5.4083 0 255 0
-0.884074 -0.751112 -5.40317 0 255 0
-0.908562 -0.263851 -5.36506 0 255 0
0.985567 1.5374 -7.8933 0 255 0
0.860823 0.511402 -7.66393 0 255 0
-0.338056 -0.408554 -5.57233 0 255 0
-0.630916 -1.27446 -5.53635 0 255 0
-0.697934 -0.896266 -5.47662 0 255 0
-0.770306 -0.892044 -5.45208 0 255 0
-0.795621 -1.49535 -5.49378 0 255 0
-0.822988 -0.832023 -5.42868 0 255 0
0.899462 0.673531 -7.64745 0 255 0
-0.678021 -0.92461 -5.48825 0 255 0
-0.776577 -1.50845 -5.50116 0 255 0
0.442479 0.997667 -7.46081 0 255 0
0.0146772 0.604214 -7.37072 0 255 0
-0.644842 -0.80318 -5.48854 0 255 0
-1.02383 -0.482729 -5.3372 0 255 0
-1.0231 -0.482586 -5.3368 0 255 0
-0.662747 -0.905418 -5.49177 0 255 0
-0.662583 -0.905502 -5.49319 0 255 0
-0.67801 -0.923636 -5.48511 0 255 0
-0.758609 -1.47124 -5.50662 0 255 0
-0.810073 -1.02709 -5.44822 0 255 0
-0.488953 -0.838595 -5.54845 0 255 0
-0.563595 -0.17961 -5.47825 0 255 0
-0.762161 -0.336597 -5.42068 0 255 0
-0.558263 -2.13059 -5.62079 0 255 0
0.293841 0.316866 -7.58557 0 255 0
0.272746 0.456759 -7.48867 0 255 0
-0.588091 -1.89314 -5.60027 0 255 0
-0.587259 -1.893 -5.59978 0 255 0
-0.628835 -1.06029 -5.51422 0 255 0
-0.630264 -1.67286 -5.55758 0 255 0
-0.308304 -0.347814 -5.58003 0 255 0
-0.53467 -2.09912 -5.62825 0 255 0
-0.734343 -1.50916 -5.51651 0 255 0
-0.81039 -0.648527 -5.42133 0 255 0
-0.658026 -1.02466 -5.5005 0 255 0
-0.706205 -1.58619 -5.53003 0 255 0
-0.551039 -2.21062 -5.62747 0 255 0
-0.646094 -1.5966 -5.54887 0 255 0
-0.795906 -0.743804 -5.43169 0 255 0
-0.765106 -0.928245 -5.45555 0 255 0
-0.79185 -0.651223 -5.42689 0 255 0
-0.905981 -0.583582 -5.38313 0 255 0
-0.520743 -2.01435 -5.62641 0 255 0
-0.543207 -2.15741 -5.62706 0 255 0
-0.605408 -1.61332 -5.56508 0 255 0
-0.361177 -0.878426 -5.59606 0 255 0
0.308494 -0.179046 -7.6271 0 255 0
-0.691068 -1.07032 -5.4948 0 255 0
-0.616616 -1.65296 -5.5634 0 255 0
-0.714523 -1.21563 -5.50411 0 255 0
-0.688989 -0.649574 -5.46285 0 255 0
-0.519915 -2.1049 -5.63432 0 255 0
-0.73322 -0.818512 -5.45954 0 255 0
-0.721125 -1.55486 -5.52409 0 255 0
-0.209366 -1.06719 -5.66261 0 255 0
-0.659507 -0.84807 -5.48647 0 255 0
-0.782481 -0.261899 -5.41011 0 255 0
-0.127028 0.567815 -7.28752 0 255 0
0.559923 1.94921 -7.68897 0 255 0
0.822146 -1.00555 -7.75827 0 255 0
0.765 -0.583677 -7.73529 0 255 0
0.728609 0.478639 -7.59095 0 255 0
0.739431 -1.02661 -7.7562 0 255 0
0.982378 -0.0685311 -7.625 0 255 0
0.966606 -0.369053 -7.68942 0 255 0
1.32124 -0.637477 -7.65661 0 255 0
0.73024 -0.833477 -7.74635 0 255 0
0.734545 -1.47266 -7.78812 0 255 0
0.734543 -1.55114 -7.79152 0 255 0
1.50674 -0.631715 -7.07001 0 255 0
0.938133 -0.431658 -7.68243 0 255 0
0.916606 -1.34809 -7.73452 0 255 0
0.823809 -1.44892 -7.77033 0 255 0
1.27817 -2.19736 -7.72695 0 255 0
1.08484 -0.716742 -7.81234 0 255 0
0.902931 -1.55519 -7.77817 0 255 0
0.516458 1.84923 -7.70039 0 255 0
0.740482 -0.742828 -7.74247 0 255 0
0.654549 1.8043 -7.75327 0 255 0
0.954755 0.161132 -7.63874 0 255 0
0.892961 -1.82466 -7.76181 0 255 0
0.733398 -1.56742 -7.79431 0 255 0
1.29192 -0.563673 -7.64772 0 255 0
0.880734 -0.510749 -7.69483 0 255 0
1.04341 1.6892 -7.90643 0 255 0
0.523001 1.38722 -7.73203 0 255 0
0.837063 -0.219637 -7.68465 0 255 0
0.393344 -0.926901 -7.58909 0 255 0
1.32452 -0.430698 -7.59474 0 255 0
1.27705 -0.569406 -7.64694 0 255 0
0.603902 1.49106 -7.75174 0 255 0
0.652212 1.89073 -7.7496 0 255 0
0.298412 -0.149056 -7.60837 0 255 0
0.579741 1.83443 -7.72489 0 255 0
0.234649 1.56953 -7.25288 0 255 0
0.31514 1.75231 -7.2714 0 255 0
0.701959 1.97266 -7.7205 0 255 0
0.957976 1.96407 -7.82661 0 255 0
1.02753 1.9551 -7.86887 0 255 0
-0.134406 1.95864 -7.42359 0 255 0
0.957388 1.91368 -7.85888 0 255 0
-0.236366 1.9396 -7.41723 0 255 0
0.487301 1.89985 -7.68848 0 255 0
0.549316 1.89388 -7.71194 0 255 0
-0.245223 1.86565 -7.42139 0 255 0
-0.435569 1.85835 -7.35327 0 255 0
-0.19335 1.83873 -7.44357 0 255 0
0.720683 1.78318 -7.7775 0 255 0
0.635415 1.64783 -7.75651 0 255 0
0.838513 1.57741 -7.8321 0 255 0
-0.402468 1.57634 -7.38211 0 255 0
0.537306 1.49018 -7.72925 0 255 0
0.721934 1.47794 -7.79997 0 255 0
-0.426789 1.42269 -7.38247 0 255 0
0.255312 1.18949 -7.36912 0 255 0
0.662574 1.32647 -7.78576 0 255 0
0.149887 1.14622 -7.3276 0 255 0
0.158027 1.14054 -7.33468 0 255 0
0.0833522 1.06991 -7.29865 0 255 0
0.083368 1.06995 -7.29869 0 255 0
0.270297 1.09755 -7.42062 0 255 0
0.278897 0.981112 -7.45238 0 255 0
-0.0571619 0.852412 -7.28728 0 255 0
-0.257818 -0.262429 -5.59214 0 255 0
0.633092 0.648403 -7.54087 0 255 0
0.067887 0.645122 -7.39975 0 255 0
0.630579 0.571878 -7.54415 0 255 0
-0.0999426 0.566525 -7.2843 0 255 0
0.346453 0.526383 -7.52539 0 255 0
-0.15698 0.507969 -7.28059 0 255 0
0.466166 0.474696 -7.54301 0 255 0
0.427576 0.470333 -7.54182 0 255 0
-0.239895 0.462991 -7.25208 0 255 0
-0.0950264 0.415733 -7.35699 0 255 0
0.512061 0.390822 -7.57087 0 255 0
0.639174 0.339395 -7.62394 0 255 0
0.705537 0.254669 -7.64933 0 255 0
-0.422698 -0.577817 -5.55269 0 255 0
-0.219148 -0.633738 -5.62981 0 255 0
0.232049 0.147342 -7.58294 0 255 0
0.167119 0.146486 -7.56079 0 255 0
-0.172069 -0.714263 -5.65205 0 255 0
-0.341255 -0.738684 -5.59433 0 255 0
0.184236 0.0899375 -7.55392 0 255 0
0.970599 -0.077861 -7.62711 0 255 0
-0.523838 -0.787281 -5.53337 0 255 0
0.206327 -0.0284098 -7.56498 0 255 0
-0.607275 -1.20422 -5.54081 0 255 0
0.623707 -0.710509 -7.71961 0 255 0
0.947276 -0.764548 -7.70671 0 255 0
0.952359 -0.81945 -7.70106 0 255 0
0.162867 -0.834108 -7.43019 0 255 0
0.926395 -0.935119 -7.69809 0 255 0
0.60978 -1.07673 -7.73891 0 255 0
-0.530382 -1.70054 -5.59794 0 255 0
0.168136 -1.29004 -7.56773 0 255 0
0.636661 1.96147 -7.70531 0 255 0
0.964898 1.9543 -7.84784 0 255 0
1.03543 1.93489 -7.89056 0 255 0
-0.0433414 1.90413 -7.49238 0 255 0
0.332336 1.5923 -7.29417 0 255 0
-0.0832379 1.86395 -7.4797 0 255 0
0.276651 1.4624 -7.26996 0 255 0
-0.20614 1.52635 -7.45585 0 255 0
-0.189481 1.44332 -7.46686 0 255 0
1.68222 0.0373288 -6.29963 0 255 0
0.369573 1.1175 -7.4068 0 255 0
0.449459 1.06383 -7.44691 0 255 0
1.07666 1.0554 -7.72068 0 255 0
-0.279184 1.02898 -7.23788 0 255 0
0.428197 0.90547 -7.46123 0 255 0
-0.00759284 0.8799 -7.29933 0 255 0
0.637506 0.844678 -7.55043 0 255 0
0.415356 0.845777 -7.51426 0 255 0
-0.220793 -0.169579 -5.6011 0 255 0
-0.472212 -0.182823 -5.5148 0 255 0
-0.337849 -0.218143 -5.56391 0 255 0
-0.627865 -0.206764 -5.45891 0 255 0
0.731768 0.711038 -7.59025 0 255 0
0.966668 0.676252 -7.62737 0 255 0
0.979704 0.669732 -7.63473 0 255 0
-0.514075 -0.227884 -5.50211 0 255 0
-0.646137 -0.220703 -5.45687 0 255 0
-0.545397 -0.232751 -5.49078 0 255 0
-0.552046 -0.253154 -5.49056 0 255 0
-0.200498 -0.279005 -5.61175 0 255 0
-0.572823 -0.264969 -5.48189 0 255 0
0.181244 0.693426 -7.46367 0 255 0
-0.32656 -0.299658 -5.57051 0 255 0
-0.346057 -0.343935 -5.56535 0 255 0
-0.392684 -0.358999 -5.55167 0 255 0
-0.27857 -0.412625 -5.59452 0 255 0
-0.515171 -0.421974 -5.51255 0 255 0
-0.300166 -0.43326 -5.58748 0 255 0
0.805807 0.423812 -7.64114 0 255 0
0.867362 0.401625 -7.65214 0 255 0
-0.31244 -0.477065 -5.58641 0 255 0
0.459293 0.388094 -7.55636 0 255 0
0.988777 0.315206 -7.64872 0 255 0
0.988763 0.314924 -7.64975 0 255 0
-0.383001 -0.48924 -5.56169 0 255 0
-0.301657 0.367933 -7.24315 0 255 0
-0.14421 -0.549607 -5.65187 0 255 0
-0.60625 -0.566547 -5.48789 0 255 0
-0.380135 -0.587449 -5.56979 0 255 0
0.13459 0.304524 -7.54174 0 255 0
-0.352344 -0.620682 -5.58187 0 255 0
0.490385 0.211698 -7.61562 0 255 0
-0.492333 -0.673511 -5.53641 0 255 0
-0.174901 -0.688733 -5.64974 0 255 0
0.740212 0.0930143 -7.68785 0 255 0
-0.513889 -0.698919 -5.53117 0 255 0
0.744142 0.0773629 -7.68821 0 255 0
-0.612487 -0.706391 -5.49536 0 255 0
-0.304198 -0.790397 -5.61075 0 255 0
-0.447421 -0.814215 -5.56373 0 255 0
-0.372551 -0.825523 -5.58992 0 255 0
-0.623107 -0.823594 -5.49669 0 255 0
-0.508996 -0.841035 -5.54097 0 255 0
-0.606149 -0.84402 -5.50666 0 255 0
0.0985441 -0.0961955 -7.55281 0 255 0
-0.636681 -0.880281 -5.49701 0 255 0
-0.609144 -0.890113 -5.51101 0 255 0
-0.492443 -0.951514 -5.55637 0 255 0
-0.578776 -1.0628 -5.53266 0 255 0
1.01075 -0.46853 -7.70339 0 255 0
0.762589 -0.104822 -7.70702 0 255 0
-0.240262 -1.17133 -5.66229 0 255 0
-0.589364 -1.20559 -5.54695 0 255 0
-0.491116 -1.23464 -5.58188 0 255 0
-0.60728 -1.23912 -5.54213 0 255 0
-0.537703 -1.24978 -5.56627 0 255 0
-0.59914 -1.25225 -5.54645 0 255 0
-0.323158 -1.2798 -5.64321 0 255 0
-0.47697 -1.2816 -5.58979 0 255 0
-0.374643 -1.35739 -5.62851 0 255 0
0.188281 -0.832168 -7.43761 0 255 0
-0.484012 -1.4499 -5.59868 0 255 0
-0.368406 -1.47795 -5.63923 0 255 0
-0.189368 -1.48961 -5.70019 0 255 0
0.459948 -1.00352 -7.6162 0 255 0
-0.483178 -1.51259 -5.6018 0 255 0
-0.290518 -1.53617 -5.66929 0 255 0
-0.577192 -1.53591 -5.56956 0 255 0
-0.577085 -1.5359 -5.5695 0 255 0
-0.4658 -1.56252 -5.61087 0 255 0
-0.539441 -1.56366 -5.58502 0 255 0
-0.539204 -1.56394 -5.58453 0 255 0
-0.573526 -1.57273 -5.57366 0 255 0
-0.567958 -1.59992 -5.57629 0 255 0
-0.28532 -1.60842 -5.67528 0 255 0
-0.436356 -1.60573 -5.6236 0 255 0
-0.374814 -1.61278 -5.64517 0 255 0
-0.388123 -1.62499 -5.64139 0 255 0
-0.50384 -1.64036 -5.60058 0 255 0
-0.233742 -1.64755 -5.69473 0 255 0
-0.484061 -1.66024 -5.6093 0 255 0
-0.487147 -1.68244 -5.60984 0 255 0
-0.503456 -1.75101 -5.60885 0 255 0
-0.284109 -1.80401 -5.68956 0 255 0
-0.438989 -1.80488 -5.63581 0 255 0
0.630474 -1.42284 -7.79336 0 255 0
0.842731 -1.47283 -7.77287 0 255 0
-0.265142 -1.92335 -5.7091 0 255 0
-0.576531 -1.99624 -5.60693 0 255 0
-0.539259 -2.00556 -5.62157 0 255 0
-0.191178 -2.02137 -5.73739 0 255 0
-0.408863 1.93623 -7.35699 0 255 0
-0.128597 1.91988 -7.46071 0 255 0
0.15022 1.067 -7.33287 0 255 0
0.441336 0.938847 -7.44632 0 255 0
-0.353911 0.994417 -7.23183 0 255 0
0.566238 0.901433 -7.49907 0 255 0
-0.288332 0.974695 -7.28089 0 255 0
-0.11767 0.729245 -7.2599 0 255 0
0.574569 0.580599 -7.5193 0 255 0
0.0287445 0.592464 -7.39732 0 255 0
0.162576 0.597907 -7.47558 0 255 0
0.0638982 0.55718 -7.42018 0 255 0
0.385253 0.483778 -7.54061 0 255 0
-0.28361 0.464356 -7.23764 0 255 0
0.852853 0.410196 -7.64599 0 255 0
-0.323922 -0.541256 -5.58753 0 255 0
-0.433002 -0.542895 -5.54734 0 255 0
0.640142 0.293031 -7.63785 0 255 0
0.173492 0.259168 -7.55138 0 255 0
-0.611659 -0.650054 -5.49144 0 255 0
-0.418322 -0.682304 -5.56358 0 255 0
-0.201588 -0.726674 -5.64316 0 255 0
-0.0693326 1.96578 -7.43897 0 255 0
0.520916 0.0731333 -7.69211 0 255 0
-0.446857 -0.764567 -5.55988 0 255 0
-0.210923 -0.811229 -5.64499 0 255 0
0.853599 -0.138507 -7.63939 0 255 0
0.573607 -0.166338 -7.72339 0 255 0
-0.209562 -0.939533 -5.65538 0 255 0
-0.578126 -0.928662 -5.52275 0 255 0
-0.527085 -0.200555 -5.49417 0 255 0
-0.23018 -0.98888 -5.65046 0 255 0
-0.44874 -0.984399 -5.57589 0 255 0
-0.563147 -1.05049 -5.53688 0 255 0
0.78255 -0.420644 -7.7151 0 255 0
-0.622383 -1.21987 -5.53535 0 255 0
-0.574388 -1.22073 -5.55357 0 255 0
-0.483653 -1.25241 -5.58551 0 255 0
0.947762 -0.707825 -7.71869 0 255 0
-0.528387 -1.31845 -5.57533 0 255 0
0.629066 -0.750653 -7.73106 0 255 0
-0.466875 -1.37115 -5.59957 0 255 0
-0.603763 -1.44025 -5.55554 0 255 0
-0.513107 -1.48925 -5.58947 0 255 0
-0.173732 -1.54831 -5.70827 0 255 0
-0.174278 -1.54772 -5.70937 0 255 0
-0.588591 -1.56642 -5.56806 0 255 0
-0.344754 -1.57472 -5.65349 0 255 0
-0.54229 -1.57686 -5.58305 0 255 0
-0.542285 -1.57686 -5.58307 0 255 0
-0.234339 -1.63492 -5.69356 0 255 0
-0.47134 -1.63277 -5.61089 0 255 0
-1.10799 1.76811 -7.9525 0 255 0
-0.303017 -1.69648 -5.67531 0 255 0
-0.448403 -1.71346 -5.62674 0 255 0
-0.389469 -1.73131 -5.64789 0 255 0
-0.302716 -1.76939 -5.68096 0 255 0
0.522483 -1.36045 -7.70232 0 255 0
-0.246013 -1.93768 -5.71544 0 255 0
-0.414214 -1.95854 -5.66293 0 255 0
-0.402558 -1.98103 -5.66785 0 255 0
-0.58869 -1.98743 -5.60282 0 255 0
-0.442171 -2.03156 -5.6577 0 255 0
0.903933 1.92518 -7.84156 0 255 0
1.02011 1.84249 -7.8891 0 255 0
0.209332 1.1811 -7.33669 0 255 0
0.552932 0.946061 -7.49887 0 255 0
-0.0503691 0.932518 -7.27644 0 255 0
-0.089059 0.869614 -7.27254 0 255 0
-0.183404 -0.192313 -5.61406 0 255 0
-0.456973 -0.396089 -5.53155 0 255 0
-0.132184 -0.439287 -5.64658 0 255 0
-0.400571 -0.435889 -5.55106 0 255 0
0.508632 0.417087 -7.56392 0 255 0
0.779437 0.359745 -7.61839 0 255 0
-0.494092 -0.477154 -5.52228 0 255 0
0.229052 0.18015 -7.57771 0 255 0
-0.423141 -0.705901 -5.5622 0 255 0
-0.432972 -0.757385 -5.56511 0 255 0
-0.621454 -0.869411 -5.50192 0 255 0
0.199912 0.136248 -7.56907 0 255 0
-0.445967 -1.0175 -5.57833 0 255 0
-0.229319 -1.22904 -5.67126 0 255 0
-0.333269 -1.2649 -5.63799 0 255 0
-0.486273 -1.39965 -5.59533 0 255 0
-0.200933 -1.53319 -5.69989 0 255 0
-0.373162 -1.5305 -5.642 0 255 0
-0.437968 -1.53559 -5.61963 0 255 0
-0.48425 -1.57026 -5.60491 0 255 0
-0.526103 -1.6897 -5.59736 0 255 0
-0.237525 -1.70717 -5.69815 0 255 0
-0.497151 -1.7086 -5.60624 0 255 0
0.369978 1.20529 -7.39012 0 255 0
1.04079 0.434489 -7.68725 0 255 0
0.102435 0.512848 -7.44212 0 255 0
-0.503951 -0.53646 -5.52199 0 255 0
0.931588 -0.0864869 -7.6268 0 255 0
-0.332994 -1.44516 -5.64729 0 255 0
-0.420878 -1.50105 -5.6239 0 255 0
-0.394597 -1.7825 -5.6488 0 255 0
0.97868 -1.11545 -7.73042 0 255 0
-0.50903 -1.97707 -5.6276 0 255 0
-0.451098 -1.93782 -5.65118 0 255 0
-0.294631 -1.62667 -5.67341 0 255 0
0.424286 0.591989 -7.53654 0 255 0
-0.399409 -0.77136 -5.57399 0 255 0
0.652123 0.153735 -7.64629 0 255 0
-0.207473 1.89369 -7.43464 0 255 0
0.0654151 1.03964 -7.30864 0 255 0
0.585002 0.252349 -7.61591 0 255 0
-0.484488 -1.63185 -5.60541 0 255 0
0.663934 -1.37283 -7.75975 0 255 0
0.274032 0.926523 -7.44557 0 255 0
-0.58151 -1.93235 -5.60299 0 255 0
0.60287 1.94047 -7.72215 0 255 0
-0.223537 -1.79966 -5.7106 0 255 0
0.897128 1.74933 -7.85144 0 255 0
0.0532347 0.603888 -7.40525 0 255 0
0.268961 0.500547 -7.47981 0 255 0
0.794421 0.402038 -7.63311 0 255 0
-0.580511 -1.42672 -5.56257 0 255 0
-0.278881 -0.768236 -5.61838 0 255 0
0.584389 1.40782 -7.75232 0 255 0
0.755549 -0.765351 -7.74448 0 255 0
-0.244759 -1.80301 -5.70375 0 255 0
0.591329 0.696191 -7.53457 0 255 0
0.591948 0.391446 -7.60177 0 255 0
-0.325005 -1.48734 -5.65419 0 255 0
-0.24175 -2.0766 -5.72391 0 255 0
-0.916677 -0.329759 -5.36815 0 255 0
-0.425162 -1.08553 -5.58915 0 255 0
1.33819 1.91806 -7.36409 0 255 0
-0.227846 -0.909852 -5.64424 0 255 0
0.52796 0.811874 -7.50397 0 255 0
0.108769 0.417728 -7.4315 0 255 0
0.285859 0.358403 -7.53325 0 255 0
0.245142 1.30089 -7.31051 0 255 0
0.748718 -1.34281 -7.78124 0 255 0
0.622834 1.7584 -7.74381 0 255 0
0.318215 1.37139 -7.31305 0 255 0
0.298348 0.98662 -7.46125 0 255 0
0.28132 1.1356 -7.39299 0 255 0
0.0535733 0.35518 -7.41856 0 255 0
0.607446 1.42847 -7.75957 0 255 0
-0.296752 0.403884 -7.23958 0 255 0
0.2441 1.41132 -7.27544 0 255 0
0.273659 0.457104 -7.48918 0 255 0
-0.186926 0.637451 -7.24682 0 255 0
0.24528 1.1 -7.40749 0 255 0
1.35287 1.92599 -7.35521 0 255 0
0.245783 1.11885 -7.40831 0 255 0
0.430498 0.889072 -7.47116 0 255 0
0.131173 -1.30838 -7.56046 0 255 0
0.727592 1.62234 -7.78914 0 255 0
0.171687 0.8684 -7.458 0 255 0
0.143168 0.377023 -7.45759 0 255 0
0.151935 0.286342 -7.54523 0 255 0
0.329272 0.656678 -7.53428 0 255 0
-0.307967 0.990877 -7.24718 0 255 0
-0.162443 0.831385 -7.26951 0 255 0
0.410345 1.10676 -7.41465 0 255 0
0.173747 0.259039 -7.55095 0 255 0
0.306525 1.70654 -7.27096 0 255 0
0.153384 0.286842 -7.5428 0 255 0
1.30915 1.93755 -7.36824 0 255 0
1.01978 1.94532 -7.88001 0 255 0
-0.407994 -0.85784 -5.58196 0 255 0
-0.868136 -0.747359 -5.40732 0 255 0
-0.947248 -0.451181 -5.3612 0 255 0
-0.70808 -0.507245 -5.44846 0 255 0
-0.995889 -0.956864 -5.38876 0 255 0
-0.960386 -0.480867 -5.35805 0 255 0
-0.671493 -0.724492 -5.47436 0 255 0
-1.0297 -0.186433 -5.32375 0 255 0
0.256514 -0.0178205 -7.60158 0 255 0
0.0847309 0.22586 -7.51885 0 255 0
0.380532 -0.837185 -7.57829 0 255 0
-0.611506 -1.15933 -5.52798 0 255 0
-0.185887 -0.234541 -5.61672 0 255 0
-0.207117 -0.166143 -5.60785 0 255 0
-0.434146 -0.560545 -5.54895 0 255 0
-0.174865 -0.627746 -5.64605 0 255 0
-0.297235 -1.10946 -5.63307 0 255 0
-0.58584 -1.25423 -5.55107 0 255 0
-0.171191 -1.28768 -5.69664 0 255 0
0.979067 -1.30042 -7.74655 0 255 0
0.933719 -2.56062 -7.84393 0 255 0
1.10124 0.247437 -7.71111 0 255 0
-1.00419 -0.188223 -5.33124 0 255 0
-0.61832 -1.43799 -5.54694 0 255 0
-0.935338 -1.13165 -5.4077 0 255 0
-0.881105 -0.54991 -5.39047 0 255 0
-0.934275 -0.239818 -5.358 0 255 0
-0.682239 -0.895048 -5.48515 0 255 0
-0.946585 -0.513239 -5.36504 0 255 0
-0.677531 -0.688122 -5.4697 0 255 0
-0.494446 -0.477561 -5.52312 0 255 0
0.98159 -2.46126 -7.82871 0 255 0
0.220374 0.616103 -7.47838 0 255 0
0.745161 -0.505142 -7.72863 0 255 0
0.0456653 -1.31278 -7.52972 0 255 0
0.53276 0.629376 -7.53682 0 255 0
0.760666 -0.854806 -7.75607 0 255 0
0.915228 -0.941574 -7.69137 0 255 0
0.365488 0.111234 -7.62251 0 255 0
0.980648 -1.32917 -7.75672 0 255 0
-0.874894 1.87654 -7.28202 0 255 0
-0.990284 -0.854354 -5.38369 0 255 0
-0.642426 -0.904457 -5.49827 0 255 0
-0.479484 1.92968 -7.32874 0 255 0
0.742061 -0.796688 -7.73677 0 255 0
1.29113 -0.643732 -7.64874 0 255 0
1.30519 -0.620276 -7.6493 0 255 0
1.27404 -0.785202 -7.65922 0 255 0
1.26339 -0.793918 -7.66314 0 255 0
-0.92784 -0.567793 -5.37475 0 255 0
0.335164 -0.888069 -7.57794 0 255 0
-0.977211 -0.517036 -5.35485 0 255 0
0.339891 1.72916 -7.27866 0 255 0
-0.0986115 0.894478 -7.26419 0 255 0
0.782664 1.54793 -7.81834 0 255 0
1.31448 -0.744934 -7.66023 0 255 0
0.562626 0.0297288 -7.70105 0 255 0
0.988803 -1.02398 -7.72325 0 255 0
0.653099 0.592032 -7.55439 0 255 0
-0.192148 0.553876 -7.26568 0 255 0
0.732167 -1.68299 -7.79992 0 255 0
0.696161 0.0930349 -7.66746 0 255 0
0.631196 -1.095 -7.74988 0 255 0
0.679579 -1.6435 -7.77812 0 255 0
0.472571 1.94233 -7.67728 0 255 0
0.321285 -1.363 -7.63093 0 255 0
0.278399 -1.36446 -7.61447 0 255 0
0.742957 1.92395 -7.7794 0 255 0
0.748186 -1.65451 -7.80037 0 255 0
0.969821 -0.700959 -7.71458 0 255 0
0.507824 -0.129468 -7.69621 0 255 0
-0.873907 -0.185837 -5.37645 0 255 0
-0.710575 -1.50735 -5.52335 0 255 0
0.480816 0.614283 -7.56073 0 255 0
-0.807881 -0.568037 -5.4168 0 255 0
0.173589 1.18009 -7.31457 0 255 0
-0.392766 -1.56484 -5.6366 0 255 0
-0.0578315 0.479432 -7.37938 0 255 0
0.56638 1.03608 -7.50871 0 255 0
-0.412729 -1.74188 -5.63979 0 255 0
0.694079 -1.27857 -7.75705 0 255 0
-0.873512 -0.186794 -5.37544 0 255 0
0.752879 -1.52915 -7.78909 0 255 0
-0.325736 -2.07538 -5.69613 0 255 0
0.243045 1.08581 -7.4112 0 255 0
-0.711109 -1.50666 -5.52428 0 255 0
-0.269526 -0.776033 -5.62287 0 255 0
-0.323227 -2.07842 -5.69242 0 255 0
-0.624735 -0.272326 -5.46672 0 255 0
0.927853 -1.36001 -7.73944 0 255 0
0.53288 -1.06783 -7.71069 0 255 0
-0.768346 -1.20929 -5.48479 0 255 0
-0.650598 -1.06638 -5.50743 0 255 0
-0.543247 -1.20639 -5.56145 0 255 0
0.218748 0.34573 -7.55785 0 255 0
-0.481941 -1.54736 -5.6041 0 255 0
0.566244 0.399798 -7.58482 0 255 0
-0.708073 -0.507229 -5.44846 0 255 0
0.751974 1.95135 -7.76027 0 255 0
-0.144565 -0.548988 -5.65308 0 255 0
0.862466 1.94781 -7.82061 0 255 0
0.200814 -0.850242 -7.45156 0 255 0
0.5446 -0.884141 -7.75345 0 255 0
-0.291139 -0.443599 -5.59201 0 255 0
-0.226776 1.44052 -7.46203 0 255 0
0.908457 1.67056 -7.86291 0 255 0
0.913197 1.97277 -7.80225 0 255 0
0.794681 1.95468 -7.77637 0 255 0
0.857326 1.95372 -7.8029 0 255 0
0.621312 1.94986 -7.71229 0 255 0
-0.133771 -0.399403 -5.64638 0 255 0
-0.260612 -0.414602 -5.60065 0 255 0
-0.260687 -0.41461 -5.60047 0 255 0
0.0902288 1.0882 -7.2996 0 255 0
0.200815 -0.850136 -7.4512 0 255 0
0.836087 1.94646 -7.81034 0 255 0
-0.247822 -0.541636 -5.61411 0 255 0
-0.197716 -0.629701 -5.6388 0 255 0
0.748859 -1.48144 -7.79045 0 255 0
-0.364369 -1.51144 -5.64361 0 255 0
-0.728202 -0.572558 -5.44537 0 255 0
-0.573049 -1.27788 -5.55667 0 255 0
-0.334693 -1.37232 -5.64241 0 255 0
-0.487328 -1.46786 -5.5959 0 255 0
-0.230328 -1.5738 -5.69448 0 255 0
-0.186638 -1.61507 -5.71024 0 255 0
-0.570053 -0.747692 -5.51228 0 255 0
-0.644224 -0.841904 -5.49177 0 255 0
-0.905303 -0.875846 -5.40403 0 255 0
-0.722019 -0.962177 -5.47311 0 255 0
-0.710154 -0.963895 -5.47972 0 255 0
-1.03839 -1.03551 -5.38112 0 255 0
-1.03792 -1.03548 -5.37997 0 255 0
-0.470192 -1.27083 -5.59116 0 255 0
-0.370018 -1.33198 -5.62845 0 255 0
-0.217152 -1.56858 -5.69577 0 255 0
-0.647001 -1.57121 -5.55091 0 255 0
-0.586321 -1.61169 -5.57058 0 255 0
-0.333336 -2.02954 -5.69306 0 255 0
-0.218959 -2.1601 -5.73666 0 255 0
-0.49252 -2.22335 -5.64485 0 255 0
-0.659603 -0.848322 -5.48658 0 255 0
-0.747395 -0.851649 -5.45835 0 255 0
-0.74677 -0.852544 -5.45707 0 255 0
-0.765314 -0.928391 -5.45562 0 255 0
-0.754093 -0.986497 -5.46461 0 255 0
-0.545697 -1.0172 -5.54019 0 255 0
-0.311064 -1.36403 -5.6491 0 255 0
-0.782343 -1.45869 -5.49769 0 255 0
-0.374345 -1.56038 -5.64224 0 255 0
-0.522231 -1.63294 -5.59412 0 255 0
-0.271567 -2.21336 -5.724 0 255 0
-0.306592 -0.909958 -5.61809 0 255 0
-0.967855 -0.984539 -5.39865 0 255 0
-0.667286 -1.25372 -5.52464 0 255 0
-0.330577 -1.38797 -5.6451 0 255 0
-0.437766 -1.46199 -5.61506 0 255 0
-0.605764 -1.58047 -5.56338 0 255 0
-0.454269 -1.62694 -5.61663 0 255 0
-0.59825 -1.11465 -5.51541 0 255 0
-0.22656 -1.36505 -5.67877 0 255 0
-0.254527 -1.38388 -5.66947 0 255 0
-0.335061 -1.79126 -5.67089 0 255 0
-0.336888 -1.51681 -5.64998 0 255 0
-0.378688 -1.6189 -5.64545 0 255 0
-0.420147 -1.10283 -5.57783 0 255 0
-0.8095 -1.90586 -5.52095 0 255 0
-0.186759 1.82055 -7.44555 0 255 0
-0.43897 -0.872079 -5.57137 0 255 0
-0.221986 -1.28828 -5.68238 0 255 0
-0.367205 1.02852 -7.20332 0 255 0
-0.589118 -2.09624 -5.60832 0 255 0
-0.726697 -0.169832 -5.41847 0 255 0
-0.995853 -1.09275 -5.39217 0 255 0
-0.497249 1.9529 -7.28215 0 255 0
-0.549746 -1.32911 -5.5651 0 255 0
0.713976 0.46188 -7.60235 0 255 0
0.577994 -0.893521 -7.76757 0 255 0
0.512252 -1.11255 -7.65571 0 255 0
-0.0836087 1.81006 -7.48624 0 255 0
0.84424 0.449788 -7.63905 0 255 0
0.107439 -1.20527 -7.49879 0 255 0
0.192952 0.4766 -7.45789 0 255 0
0.808168 -0.498771 -7.73671 0 255 0
1.00471 -0.452078 -7.70922 0 255 0
0.979232 0.438134 -7.6346 0 255 0
0.284041 0.136206 -7.5972 0 255 0
-0.481502 -0.160884 -5.50775 0 255 0
-0.478767 -0.938544 -5.56013 0 255 0
-0.59193 -1.45761 -5.56096 0 255 0
-0.581398 -1.51448 -5.56767 0 255 0
-0.564211 -1.6722 -5.58284 0 255 0
-0.630415 -0.194376 -5.45864 0 255 0
-0.55079 -1.62618 -5.5834 0 255 0
-0.215074 -0.740741 -5.63893 0 255 0
-0.210183 -0.670595 -5.63604 0 255 0
-0.620946 -1.51124 -5.55455 0 255 0
-0.480203 -1.7542 -5.61547 0 255 0
-0.186197 -2.1011 -5.74207 0 255 0
-0.524321 -2.1744 -5.63636 0 255 0
-0.147208 -0.860045 -5.67048 0 255 0
-0.944099 -0.303409 -5.35729 0 255 0
-0.470665 -0.675886 -5.5457 0 255 0
-0.935063 -0.703979 -5.38226 0 255 0
-0.937716 -1.11114 -5.40614 0 255 0
-0.589078 -2.09617 -5.60829 0 255 0
-0.191433 -1.71037 -5.71044 0 255 0
-0.365812 -2.09886 -5.68463 0 255 0
-0.566309 -2.1147 -5.61789 0 255 0
0.521438 0.990548 -7.49276 0 255 0
0.719536 0.589211 -7.57659 0 255 0
0.573618 0.517157 -7.54328 0 255 0
0.452943 0.486227 -7.53829 0 255 0
1.29167 -0.468421 -7.59593 0 255 0
0.54962 0.813896 -7.50974 0 255 0
0.444976 1.02846 -7.43594 0 255 0
1.71318 -0.148214 -6.33709 0 255 0
0.240562 1.75321 -7.24651 0 255 0
-0.0190981 1.82788 -7.49515 0 255 0
0.429082 0.266898 -7.616 0 255 0
0.0716785 0.390708 -7.40914 0 255 0
1.15819 0.509193 -7.70935 0 255 0
0.878258 0.389026 -7.65523 0 255 0
1.08571 -0.257639 -7.74217 0 255 0
1.29653 -0.321591 -7.60925 0 255 0
1.27892 -1.80957 -7.63237 0 255 0
1.15414 -2.0146 -7.81696 0 255 0
0.570611 -1.06715 -7.69862 0 255 0
1.04561 -1.18805 -7.75258 0 255 0
1.04386 0.244597 -7.64266 0 255 0
-1.02796 -1.0663 -5.37796 0 255 0
-0.824847 -0.567343 -5.41133 0 255 0
-0.817488 -0.786621 -5.42714 0 255 0
-0.782038 -1.09551 -5.46429 0 255 0
-0.593043 -1.22529 -5.54683 0 255 0
-0.770898 -0.97152 -5.45665 0 255 0
-0.377771 -1.28542 -5.62464 0 255 0
-0.33011 -1.5007 -5.6519 0 255 0
-0.43104 -2.00895 -5.65987 0 255 0
-0.209591 -2.01633 -5.7304 0 255 0
-0.437994 -0.790754 -5.56121 0 255 0
-0.695369 -1.35706 -5.51811 0 255 0
-1.05189 -0.922278 -5.36668 0 255 0
0.81109 -0.422259 -7.7669 0 255 0
-0.0976814 1.8355 -7.47839 0 255 0
-0.157922 -1.38825 -5.70514 0 255 0
0.569804 0.238398 -7.61519 0 255 0
0.257345 1.23376 -7.35249 0 255 0
0.333616 0.435026 -7.50841 0 255 0
0.235285 1.50653 -7.26618 0 255 0
0.0915241 0.307469 -7.48013 0 255 0
0.451726 0.154329 -7.64847 0 255 0
0.472973 -0.951214 -7.61319 0 255 0
-0.326818 1.01018 -7.22948 0 255 0
0.301341 1.05307 -7.43006 0 255 0
0.187154 1.22446 -7.31415 0 255 0
-0.325345 -0.594729 -5.58957 0 255 0
-0.251511 1.25552 -7.45808 0 255 0
-0.160463 -0.259811 -5.63083 0 255 0
-0.978682 -0.926262 -5.39142 0 255 0
-0.244771 0.517677 -7.25491 0 255 0
0.0806233 0.13802 -7.51909 0 255 0
0.233578 1.37139 -7.2882 0 255 0
0.0962606 -1.02013 -7.49684 0 255 0
0.369472 0.165607 -7.61987 0 255 0
1.64997 -0.364691 -6.34857 0 255 0
1.64997 -0.364691 -6.34857 0 255 0
1.47517 2.16416 -7.37645 0 255 0
1.195 1.74171 -7.59303 0 255 0
1.10506 2.01535 -7.81634 0 255 0
1.58775 -0.465182 -6.5616 0 255 0
1.51205 -0.457324 -7.027 0 255 0
1.62469 -0.532516 -6.49886 0 255 0
1.56546 0.429026 -6.67764 0 255 0
1.40702 2.61083 -6.92595 0 255 0
1.52815 0.419155 -6.75506 0 255 0
1.18435 1.87437 -7.65859 0 255 0
1.15683 2.62348 -7.66565 0 255 0
1.25903 0.980583 -7.44507 0 255 0
1.24781 1.35121 -7.45585 0 255 0
1.41496 -0.214454 -7.07711 0 255 0
1.56582 0.919478 -6.54467 0 255 0
1.52525 1.14655 -6.67056 0 255 0
1.26943 0.214233 -7.3561 0 255 0
1.38207 2.21343 -7.30561 0 255 0
1.39587 -0.494495 -7.14374 0 255 0
1.34681 0.765077 -7.19869 0 255 0
1.04365 0.244357 -7.64307 0 255 0
1.27947 -0.346409 -7.60462 0 255 0
1.14282 2.74467 -7.68017 0 255 0
1.3044 1.31059 -7.38563 0 255 0
1.32246 0.160114 -7.35401 0 255 0
1.23466 -0.107607 -7.57684 0 255 0
1.52969 0.184878 -6.79624 0 255 0
1.59412 -0.167352 -6.54861 0 255 0
1.59645 -0.145947 -6.54762 0 255 0
1.42977 -0.144531 -6.98899 0 255 0
1.28733 1.41207 -7.42345 0 255 0
1.62015 1.25427 -6.41094 0 255 0
1.56133 0.474958 -6.63425 0 255 0
1.17074 1.99822 -7.67938 0 255 0
1.28991 1.93252 -7.39088 0 255 0
1.53281 1.24195 -6.59764 0 255 0
1.5765 1.38371 -6.51445 0 255 0
1.59867 1.88309 -6.45654 0 255 0
1.27711 0.379748 -7.53469 0 255 0
1.41237 -0.476299 -7.08948 0 255 0
1.10539 2.33744 -7.80224 0 255 0
1.39258 2.48689 -7.11728 0 255 0
1.2483 1.31144 -7.41448 0 255 0
1.58842 0.933191 -6.50742 0 255 0
1.47845 1.16062 -6.81331 0 255 0
1.38659 0.822235 -7.076 0 255 0
1.07172 0.939259 -7.72761 0 255 0
1.30243 1.96368 -7.36743 0 255 0
1.47458 1.08022 -6.80446 0 255 0
1.34963 -0.041356 -7.26761 0 255 0
1.23231 2.488 -7.48053 0 255 0
1.36839 1.34917 -7.40548 0 255 0
1.74081 -1.35655 -6.47788 0 255 0
1.27342 1.90986 -7.37376 0 255 0
-0.0339291 0.897882 -7.28549 0 255 0
-0.273025 0.514236 -7.24297 0 255 0
0.537232 1.88411 -7.70735 0 255 0
0.610349 1.34493 -7.76682 0 255 0
0.929878 1.59569 -7.87158 0 255 0
1.28271 1.33217 -7.40037 0 255 0
0.493447 -1.0388 -7.63118 0 255 0
0.941632 -1.37632 -7.75569 0 255 0
1.05552 1.46894 -7.92508 0 255 0
1.01664 1.50828 -7.90722 0 255 0
0.891756 1.46561 -7.85647 0 255 0
1.07536 0.79395 -7.72018 0 255 0
1.18282 2.53055 -7.56847 0 255 0
1.42667 2.58954 -6.93161 0 255 0
1.49841 2.50119 -6.86947 0 255 0
-0.206114 -2.05748 -5.7347 0 255 0
0.918095 -0.640706 -7.73606 0 255 0
1.64856 0.0623213 -6.29585 0 255 0
-0.491879 1.41623 -7.36258 0 255 0
-0.228164 0.582249 -7.25726 0 255 0
-0.292689 1.29626 -7.44122 0 255 0
1.27956 0.855634 -7.42312 0 255 0
-0.0401345 1.00613 -7.27337 0 255 0
-0.942325 -1.09347 -5.40855 0 255 0
1.01779 1.98181 -7.83647 0 255 0
1.15363 -0.105286 -7.74692 0 255 0
1.07906 0.954623 -7.72145 0 255 0
1.293 1.36978 -7.43014 0 255 0
1.25874 1.49876 -7.43681 0 255 0
1.36215 1.23591 -7.11633 0 255 0
1.04699 0.00267215 -7.68771 0 255 0
1.42374 2.01761 -7.36393 0 255 0
-0.144746 -0.452011 -5.64532 0 255 0
1.01831 2.82183 -8.0283 0 255 0
0.733836 -1.56716 -7.79303 0 255 0
0.567485 0.547258 -7.54124 0 255 0
-0.122598 1.79265 -7.47158 0 255 0
-0.147038 1.46397 -7.47909 0 255 0
-0.821537 -0.488679 -5.40954 0 255 0
-0.400121 0.158364 -5.51852 0 255 0
-0.530691 -0.53741 -5.51278 0 255 0
-0.184182 -0.276181 -5.62232 0 255 0
-1.02362 -0.756294 -5.36552 0 255 0
0.359593 0.729135 -7.5314 0 255 0
0.727141 0.518052 -7.59027 0 255 0
0.675137 -0.691894 -7.73184 0 255 0
-0.134272 1.41032 -7.48776 0 255 0
-0.0202897 1.74444 -7.50873 0 255 0
1.14728 1.08648 -7.73893 0 255 0
1.4114 2.30906 -7.2705 0 255 0
1.41211 2.31001 -7.27292 0 255 0
1.41354 1.92002 -7.37961 0 255 0
0.673417 1.94349 -7.74782 0 255 0
-0.147275 -0.860393 -5.67022 0 255 0
-0.26835 1.36127 -7.44398 0 255 0
-0.540192 -0.188432 -5.48873 0 255 0
-0.200817 -1.53319 -5.69976 0 255 0
-0.297261 0.598835 -7.22755 0 255 0
-0.566367 -1.98494 -5.60909 0 255 0
1.33251 2.13533 -7.3572 0 255 0
0.89366 0.125936 -7.65945 0 255 0
1.38705 1.76202 -7.37598 0 255 0
0.703152 3.34446 -8.84891 0 255 0
-0.296579 -0.752839 -5.60926 0 255 0
-0.792764 -1.0364 -5.45612 0 255 0
-0.323831 1.15521 -7.34512 0 255 0
-0.613215 -0.180211 -5.46481 0 255 0
-0.415357 -0.223029 -5.53652 0 255 0
-0.420207 -0.230207 -5.53393 0 255 0
-0.620502 -0.17773 -5.46108 0 255 0
-0.524829 -0.188658 -5.49351 0 255 0
-0.836981 0.163619 -5.35029 0 255 0
1.43903 2.14144 -7.35555 0 255 0
-0.77671 -1.50915 -5.50307 0 255 0
-0.92323 -1.02638 -5.40769 0 255 0
-0.601153 -0.228178 -5.4718 0 255 0
-0.885278 -0.844343 -5.40831 0 255 0
-0.941968 -0.530673 -5.3681 0 255 0
-0.832228 -0.40066 -5.40108 0 255 0
-0.941656 -0.530161 -5.36773 0 255 0
-0.678173 -0.944029 -5.48742 0 255 0
-0.672143 -0.357093 -5.45438 0 255 0
-0.774987 -1.52851 -5.50323 0 255 0
-0.763668 -0.260799 -5.41711 0 255 0
-0.597977 -0.598525 -5.49326 0 255 0
-0.971151 -0.876013 -5.39313 0 255 0
-0.793247 -0.995041 -5.45269 0 255 0
0.587214 3.41615 -9.18809 0 255 0
-0.534128 -0.184311 -5.49293 0 255 0
0.16564 -0.877803 -7.44239 0 255 0
-0.427385 -0.978484 -5.58 0 255 0
-0.611744 -1.25271 -5.5405 0 255 0
-0.42059 -0.26427 -5.53714 0 255 0
-0.980271 -0.307414 -5.34276 0 255 0
-0.822268 -0.688528 -5.4189 0 255 0
-0.95758 -0.631514 -5.376 0 255 0
0.706449 1.50648 -7.77655 0 255 0
-0.882554 -1.09907 -5.42605 0 255 0
-1.01059 -0.878338 -5.37976 0 255 0
-0.323237 1.92141 -7.38855 0 255 0
-0.768217 0.160673 -5.3967 0 255 0
0.172255 1.73246 -7.24972 0 255 0
0.259356 -0.968116 -7.51261 0 255 0
0.697866 -1.42543 -7.76776 0 255 0
0.274659 0.206539 -7.59167 0 255 0
0.311247 0.0370716 -7.61294 0 255 0
0.222641 0.321277 -7.56853 0 255 0
0.934737 -0.127143 -7.62378 0 255 0
0.869742 -0.124164 -7.64826 0 255 0
0.287084 -0.105468 -7.61704 0 255 0
0.0547931 -0.15177 -7.52733 0 255 0
0.735464 -0.706567 -7.73657 0 255 0
0.359589 -0.840677 -7.57566 0 255 0
-0.132067 -0.287962 -5.6402 0 255 0
-0.138834 -0.691974 -5.66253 0 255 0
0.743931 -0.108468 -7.6994 0 255 0
-0.129568 -0.932842 -5.68216 0 255 0
0.746535 -0.420942 -7.72356 0 255 0
-0.135483 -1.22426 -5.70328 0 255 0
0.459236 -0.828306 -7.59433 0 255 0
0.347004 -0.857479 -7.57544 0 255 0
0.207668 -0.999194 -7.48643 0 255 0
0.640289 0.555474 -7.55498 0 255 0
0.162776 -1.03152 -7.51747 0 255 0
0.52581 -1.06434 -7.65135 0 255 0
0.429249 0.620649 -7.52756 0 255 0
1.38796 1.04334 -7.06476 0 255 0
0.612565 0.205266 -7.62451 0 255 0
-0.678391 -0.623073 -5.466 0 255 0
-0.65066 -0.50726 -5.46917 0 255 0
1.36112 0.783537 -7.14144 0 255 0
1.4819 0.949287 -6.80214 0 255 0
1.42021 0.107601 -7.26254 0 255 0
1.56992 0.953189 -6.55384 0 255 0
1.62696 0.41454 -6.4453 0 255 0
1.61914 0.0142496 -6.6764 0 255 0
1.57491 0.0878912 -6.72871 0 255 0
1.52493 0.606392 -6.5766 0 255 0
1.52848 0.944538 -6.6733 0 255 0
1.59041 0.267531 -6.70003 0 255 0
1.6476 -0.591436 -6.53833 0 255 0
1.46145 0.710348 -6.89723 0 255 0
1.58829 2.01323 -6.49044 0 255 0
1.54124 1.17635 -6.6314 0 255 0
1.42462 1.07556 -6.98201 0 255 0
1.44219 0.940508 -6.9061 0 255 0
1.60705 1.28906 -6.44623 0 255 0
1.61396 1.55885 -6.43114 0 255 0
1.62919 -0.43246 -6.44102 0 255 0
1.5818 1.05445 -6.51477 0 255 0
1.62434 2.04957 -6.39589 0 255 0
1.62705 -0.346693 -6.39874 0 255 0
1.63225 0.882889 -6.37895 0 255 0
1.47315 1.02362 -6.82694 0 255 0
1.62736 0.0345646 -6.56788 0 255 0
1.58599 1.27902 -6.51743 0 255 0
1.51325 0.344239 -6.80645 0 255 0
1.53698 0.851202 -6.63958 0 255 0
1.56716 1.99668 -6.54608 0 255 0
1.61006 -0.416943 -6.52822 0 255 0
1.54952 0.805328 -6.60805 0 255 0
1.42088 0.830873 -6.97995 0 255 0
1.50484 -1.35233 -7.1035 0 255 0
1.52377 1.01819 -6.67408 0 255 0
1.46542 0.702917 -6.85545 0 255 0
1.61146 1.34468 -6.42262 0 255 0
1.49855 0.882638 -6.71843 0 255 0
1.38056 0.875856 -7.08194 0 255 0
1.61253 0.250412 -6.67934 0 255 0
1.61568 -0.268385 -6.42784 0 255 0
1.60741 1.2118 -6.45617 0 255 0
1.60642 -0.0103757 -6.6665 0 255 0
1.39076 0.997816 -7.05927 0 255 0
1.44839 -1.34685 -7.06546 0 255 0
1.55894 0.972043 -6.59651 0 255 0
1.61528 1.64316 -6.43169 0 255 0
1.49688 0.385452 -6.84012 0 255 0
1.43143 0.959927 -6.92937 0 255 0
1.60705 1.28906 -6.44623 0 255 0
1.65728 -0.478759 -6.37814 0 255 0
1.61125 0.111596 -6.33215 0 255 0
1.47027 0.829983 -6.82462 0 255 0
1.61105 1.47591 -6.43569 0 255 0
1.66401 1.51675 -6.3127 0 255 0
1.62328 0.708216 -6.42301 0 255 0
1.52341 0.333874 -6.79025 0 255 0
1.63013 1.13349 -6.40915 0 255 0
1.53545 0.145449 -6.75113 0 255 0
1.4708 0.905241 -6.82116 0 255 0
1.45932 1.16379 -6.86737 0 255 0
1.45305 1.07336 -6.8675 0 255 0
1.59717 -0.504895 -7.07177 0 255 0
1.63232 -0.410621 -6.44515 0 255 0
1.53283 0.654722 -6.69852 0 255 0
1.64195 0.843612 -6.37047 0 255 0
1.54434 0.205933 -6.72543 0 255 0
1.5367 0.682736 -6.6617 0 255 0
1.52996 0.0418653 -6.76939 0 255 0
1.4583 0.955383 -6.86128 0 255 0
1.57985 0.799879 -6.52082 0 255 0
1.56991 1.01286 -6.55517 0 255 0
1.39543 -1.3292 -7.22286 0 255 0
1.62331 0.798429 -6.41366 0 255 0
1.60599 1.04633 -6.46433 0 255 0
1.646 -0.0674604 -6.31651 0 255 0
1.62328 0.708216 -6.42301 0 255 0
1.63164 -0.543102 -6.43383 0 255 0
1.5359 1.07314 -6.65255 0 255 0
1.51164 1.187 -6.6796 0 255 0
1.61821 -0.407411 -6.59886 0 255 0
1.37585 -0.375545 -7.60835 0 255 0
1.61348 0.450091 -6.46155 0 255 0
1.61848 -0.466801 -6.59417 0 255 0
1.60316 0.800891 -6.47406 0 255 0
1.58261 1.81439 -6.4659 0 255 0
1.51585 -0.141205 -6.88635 0 255 0
1.5823 0.969152 -6.521 0 255 0
1.62155 1.95012 -6.39636 0 255 0
1.64748 1.32419 -6.34418 0 255 0
1.3924 0.0579833 -7.26408 0 255 0
1.51026 0.882997 -6.7074 0 255 0
1.60145 0.404543 -6.57541 0 255 0
1.42088 0.830873 -6.97995 0 255 0
1.41327 1.12097 -7.01562 0 255 0
1.54789 0.941779 -6.62117 0 255 0
1.5476 0.723356 -6.63055 0 255 0
1.64053 1.06353 -6.37066 0 255 0
1.64384 1.00928 -6.40581 0 255 0
1.47082 0.0831874 -7.14091 0 255 0
1.52114 0.893737 -6.67872 0 255 0
1.48319 -0.362985 -7.02925 0 255 0
1.5119 0.90391 -6.71592 0 255 0
1.62933 1.2142 -6.38749 0 255 0
1.43658 0.0484765 -7.26299 0 255 0
1.46531 -0.395881 -7.03032 0 255 0
1.58959 2.15807 -7.13321 0 255 0
1.44746 -0.0315826 -7.20453 0 255 0
1.53606 0.548544 -6.66906 0 255 0
0.674968 3.36569 -9.05095 0 255 0
-1.31218 0.754134 -7.99769 0 255 0
-0.646195 1.92004 -6.66783 0 255 0
0.584765 0.2523 -7.61564 0 255 0
-1.33647 0.659075 -7.8134 0 255 0
0.212786 1.26977 -7.32183 0 255 0
0.575198 1.19166 -7.71595 0 255 0
0.591379 2.06035 -7.72286 0 255 0
1.10886 1.03178 -7.74966 0 255 0
0.176944 1.10758 -7.34269 0 255 0
-0.46924 -1.45078 -5.60362 0 255 0
-1.29896 1.62874 -8.40551 0 255 0
-0.213788 0.628054 -7.28236 0 255 0
1.43572 2.44985 -7.10571 0 255 0
0.962558 -1.68488 -7.77617 0 255 0
-0.13548 1.36797 -7.47863 0 255 0
1.47673 2.2608 -7.31602 0 255 0
-0.24082 1.86964 -7.40931 0 255 0
1.04925 1.50495 -7.91666 0 255 0
0.715411 1.25733 -7.80025 0 255 0
-0.416042 0.376633 -7.14438 0 255 0
-0.175261 0.684604 -7.2459 0 255 0
0.258972 1.12494 -7.4104 0 255 0
0.261909 1.08639 -7.42244 0 255 0
